ply
format ascii 1.0
comment This is your Processing ply file
element vertex 1159
property float x
property float y
property float z
property uchar red
property uchar green
property uchar blue
end_header
-0.009 0.060232226 0.03467917 96 93 85
-0.009 0.060232226 0.032853946 97 95 78
-0.009 0.060232226 0.03102872 99 97 80
-0.012 0.060058646 0.029119367 96 99 80
-0.016 0.05982721 0.0271942 97 100 81
-0.016 0.05982721 0.025381247 100 100 100
-0.016 0.05982721 0.023568293 84 84 84
-0.016 0.05982721 0.02175534 86 79 77
-0.016 0.05982721 0.019942421 70 63 61
-0.016 0.05982721 0.018129466 71 62 47
-0.016 0.05982721 0.016316513 73 64 49
-0.016 0.05982721 0.014503559 76 69 60
-0.016 0.05982721 0.0126906065 71 64 55
-0.016 0.05982721 0.010877687 68 67 54
-0.019 0.05965363 0.009038433 69 68 55
-0.019 0.05965363 0.0072307396 65 62 63
-0.019 0.05965363 0.005423046 63 60 61
-0.022 0.05948005 0.0036048323 72 63 66
-0.022 0.05948005 0.0018024333 72 63 66
-0.022 0.05948005 -2.623474E-10 67 58 61
-0.022 0.05948005 -0.0018024682 69 60 63
-0.022 0.05948005 -0.0036048673 69 61 57
-0.022 0.05948005 -0.005407267 69 61 57
-0.022 0.05948005 -0.0072097345 66 62 68
-0.025 0.05930647 -0.008985833 65 61 67
-0.025 0.05930647 -0.010783041 65 64 51
-0.025 0.05930647 -0.012580181 56 55 42
-0.025 0.05930647 -0.014377319 54 52 46
-0.025 0.05930647 -0.016174529 52 50 44
-0.025 0.05930647 -0.017971667 51 51 31
-0.025 0.05930647 -0.019768875 54 54 34
-0.028 0.05913289 -0.021502893 51 50 37
-0.028 0.05913289 -0.023294773 53 52 39
-0.031 0.05895931 -0.02501308 54 52 46
-0.031 0.05895931 -0.0267997 53 51 45
-0.034 0.05878573 -0.028502228 45 43 35
-0.034 0.05878573 -0.030283587 45 43 35
-0.034 0.05878573 -0.032064945 42 42 42
-0.034 0.05878573 -0.033846375 43 43 43
-0.034 0.05878573 -0.035627734 46 43 44
-0.034 0.05878573 -0.03740916 46 43 44
-0.037 0.05861215 -0.039074797 46 41 54
-0.037 0.05861215 -0.0408509 63 58 71
-0.037 0.05861215 -0.042627066 72 65 54
-0.04 0.05843857 -0.044271667 95 88 77
-0.04 0.05843857 -0.046042573 93 88 78
-0.04 0.05843857 -0.04781341 76 71 61
-0.04 0.05843857 -0.04958425 75 66 51
-0.04 0.05843857 -0.05135516 75 66 51
-0.04 0.05843857 -0.053126 74 67 40
-0.04 0.05843857 -0.054896906 71 64 37
-0.04 0.05843857 -0.05666775 67 57 65
-0.037 0.05861215 -0.058612168 59 49 57
-0.037 0.05861215 -0.060388334 28 19 45
-0.034 0.05878573 -0.062348533 24 15 41
-0.034 0.05878573 -0.064129956 19 16 8
-0.034 0.05878573 -0.06591132 18 15 7
-0.031 0.05895931 -0.06789257 11 9 3
-0.031 0.05895931 -0.069679245 11 9 3
-0.028 0.05913289 -0.07167627 17 9 28
-0.028 0.05913289 -0.073468216 18 10 29
-0.025 0.05930647 -0.07548101 31 16 30
-0.025 0.05930647 -0.07727815 50 35 49
-0.025 0.05930647 -0.079075366 48 37 25
-0.021999998 0.05948005 -0.081109196 57 46 34
-0.021999998 0.05948005 -0.08291167 54 43 40
-0.018999998 0.05965363 -0.08496129 64 53 50
-0.015999999 0.05982721 -0.087021425 63 57 41
-0.005999999 0.060405806 -0.089693554 65 59 43
-0.005999999 0.060405806 -0.091524005 66 58 29
1.1196395E-9 0.06075297 -0.09389105 60 52 23
1.1415928E-9 0.06075297 -0.09573202 69 51 39
1.1635461E-9 0.06075297 -0.09757298 71 53 41
0.023 0.060202423 0.06960906 87 79 48
0.02 0.060034104 0.0675384 90 87 77
0.02 0.060034104 0.06566233 106 103 93
0.017 0.059865784 0.06360742 100 102 83
0.017 0.059865784 0.061736606 84 86 67
0.012999999 0.059641358 0.059641365 86 88 67
0.012999999 0.059641358 0.0577776 89 91 70
0.009999999 0.059473038 0.055756 93 91 74
0.0069999998 0.059304718 0.05374492 92 90 73
0.0039999993 0.059136398 0.051744357 94 90 62
0.0039999997 0.059136398 0.04989634 104 100 72
-5.707964E-10 0.05891197 0.04786601 109 109 98
-0.0030000005 0.05874365 0.0458935 110 110 99
-0.0030000005 0.05874365 0.044057753 112 112 103
-0.0060000005 0.05857533 0.042101026 102 102 93
-0.0060000005 0.05857533 0.040270537 100 102 83
-0.0060000005 0.05857533 0.038440086 95 97 78
-0.009 0.05840701 0.0365044 93 90 80
-0.009 0.05840701 0.03467917 95 92 82
-0.009 0.05840701 0.032853946 97 94 84
-0.012 0.05823869 0.030939298 99 96 86
-0.012 0.05823869 0.029119367 94 99 86
-0.016 0.058014262 0.0271942 95 100 87
-0.016 0.058014262 0.025381247 101 102 97
-0.016 0.058014262 0.023568293 83 84 79
-0.016 0.058014262 0.02175534 87 81 74
-0.016 0.058014262 0.019942421 72 66 59
-0.016 0.058014262 0.018129466 77 61 48
-0.016 0.058014262 0.016316513 79 63 50
-0.016 0.058014262 0.014503559 76 69 60
-0.016 0.058014262 0.0126906065 73 66 57
-0.016 0.058014262 0.010877687 65 65 47
-0.019 0.057845943 0.009038433 62 62 44
-0.019 0.057845943 0.0072307396 64 62 56
-0.019 0.057845943 0.005423046 65 63 57
-0.019 0.057845943 0.0036153523 80 76 73
-0.022 0.057677623 0.0018024333 73 69 66
-0.022 0.057677623 -2.623474E-10 66 58 54
-0.022 0.057677623 -0.0018024682 69 61 57
-0.022 0.057677623 -0.0036048673 68 60 56
-0.022 0.057677623 -0.005407267 68 60 56
-0.022 0.057677623 -0.0072097345 63 60 61
-0.022 0.057677623 -0.009012134 63 60 61
-0.025 0.057509303 -0.010783041 60 59 46
-0.025 0.057509303 -0.012580181 59 58 45
-0.025 0.057509303 -0.014377319 56 55 42
-0.025 0.057509303 -0.016174529 55 54 41
-0.025 0.057509303 -0.017971667 53 52 39
-0.025 0.057509303 -0.019768875 53 52 39
-0.028 0.057340983 -0.021502893 51 49 43
-0.028 0.057340983 -0.023294773 50 48 42
-0.028 0.057340983 -0.025086721 50 48 42
-0.028 0.057340983 -0.0268786 50 48 42
-0.031 0.057172664 -0.028586388 46 46 30
-0.031 0.057172664 -0.030373007 45 45 29
-0.031 0.057172664 -0.032159626 54 47 36
-0.034 0.057004344 -0.033846375 54 47 36
-0.034 0.057004344 -0.035627734 54 46 42
-0.034 0.057004344 -0.03740916 51 43 39
-0.034 0.057004344 -0.03919052 51 41 49
-0.034 0.057004344 -0.04097188 73 63 71
-0.037 0.056836024 -0.042627066 74 73 60
-0.04 0.056667704 -0.044271667 90 89 76
-0.04 0.056667704 -0.046042573 94 89 79
-0.043 0.056499384 -0.047671393 75 70 60
-0.043 0.056499384 -0.049436975 75 66 51
-0.04 0.056667704 -0.05135516 78 69 54
-0.04 0.056667704 -0.053126 80 73 64
-0.04 0.056667704 -0.054896906 66 59 50
-0.037 0.056836024 -0.05683607 58 49 52
-0.037 0.056836024 -0.058612168 28 19 22
-0.034 0.057004344 -0.060567174 19 10 4
-0.034 0.057004344 -0.062348533 15 6 0
-0.031 0.057172664 -0.06431932 16 9 0
-0.031 0.057172664 -0.06610594 22 15 4
-0.031 0.057172664 -0.06789257 24 14 8
-0.028 0.057340983 -0.06988438 21 11 5
-0.028 0.057340983 -0.07167627 22 10 12
-0.025 0.057509303 -0.07368387 25 13 15
-0.025 0.057509303 -0.07548101 34 16 13
-0.025 0.057509303 -0.07727815 41 23 20
-0.025 0.057509303 -0.079075366 40 30 0
-0.021999998 0.057677623 -0.081109196 55 45 11
-0.018999998 0.057845943 -0.08315363 50 44 30
-0.018999998 0.057845943 -0.08496129 62 56 42
-0.011999999 0.05823869 -0.087358065 64 58 42
-0.008999999 0.05840701 -0.08943581 66 60 44
-0.005999999 0.05857533 -0.091524005 60 54 38
1.1196395E-9 0.05891197 -0.09389105 54 48 32
1.1415928E-9 0.05891197 -0.09573202 67 50 35
0.023 0.0583211 0.06772777 92 88 85
0.02 0.05815804 0.06566233 112 108 105
0.017 0.05799498 0.06360742 100 103 77
0.017 0.05799498 0.061736606 83 86 60
0.012999999 0.057777565 0.059641365 86 85 51
0.012999999 0.057777565 0.0577776 88 87 53
0.009999999 0.057614505 0.055756 92 87 64
0.0069999998 0.057451446 0.05374492 96 91 68
0.0039999993 0.057288382 0.051744357 94 90 62
0.0039999997 0.057288382 0.04989634 98 94 66
-5.707964E-10 0.057070974 0.04786601 94 91 81
-0.0030000005 0.056907915 0.0458935 91 88 78
-0.0030000005 0.056907915 0.044057753 91 90 86
-0.0030000005 0.056907915 0.042222008 97 96 92
-0.0060000005 0.056744855 0.040270537 96 98 75
-0.009 0.05658179 0.038329627 95 97 74
-0.009 0.05658179 0.0365044 94 96 77
-0.009 0.05658179 0.03467917 93 95 76
-0.009 0.05658179 0.032853946 93 93 82
-0.012 0.05641873 0.030939298 92 92 81
-0.012 0.05641873 0.029119367 90 92 80
-0.016 0.05620132 0.0271942 91 93 81
-0.016 0.05620132 0.025381247 91 93 74
-0.016 0.05620132 0.023568293 79 81 62
-0.016 0.05620132 0.02175534 84 78 71
-0.016 0.05620132 0.019942421 78 72 65
-0.016 0.05620132 0.018129466 76 66 58
-0.016 0.05620132 0.016316513 77 67 59
-0.016 0.05620132 0.014503559 75 68 57
-0.016 0.05620132 0.0126906065 73 66 55
-0.016 0.05620132 0.010877687 66 63 32
-0.019 0.056038257 0.009038433 64 61 30
-0.019 0.056038257 0.0072307396 63 60 59
-0.019 0.056038257 0.005423046 63 60 59
-0.019 0.056038257 0.0036153523 73 62 52
-0.022 0.055875197 0.0018024333 75 64 54
-0.022 0.055875197 -2.623474E-10 68 59 44
-0.022 0.055875197 -0.0018024682 69 60 45
-0.022 0.055875197 -0.0036048673 67 60 49
-0.022 0.055875197 -0.005407267 65 58 47
-0.022 0.055875197 -0.0072097345 59 58 45
-0.022 0.055875197 -0.009012134 57 56 43
-0.025 0.055712137 -0.010783041 60 60 42
-0.025 0.055712137 -0.012580181 71 71 53
-0.025 0.055712137 -0.014377319 69 65 37
-0.025 0.055712137 -0.016174529 62 58 30
-0.025 0.055712137 -0.017971667 56 55 42
-0.025 0.055712137 -0.019768875 53 52 39
-0.028 0.05554908 -0.021502893 51 49 43
-0.028 0.05554908 -0.023294773 49 47 41
-0.028 0.05554908 -0.025086721 50 48 42
-0.028 0.05554908 -0.0268786 49 47 41
-0.028 0.05554908 -0.028670548 45 46 23
-0.031 0.05538602 -0.030373007 45 46 23
-0.031 0.05538602 -0.032159626 48 47 34
-0.031 0.05538602 -0.033946317 51 50 37
-0.031 0.05538602 -0.035732932 57 49 45
-0.034 0.055222962 -0.03740916 56 48 44
-0.034 0.055222962 -0.03919052 54 50 56
-0.037 0.0550599 -0.0408509 73 69 75
-0.037 0.0550599 -0.042627066 73 72 59
-0.04 0.05489684 -0.044271667 79 78 65
-0.04 0.05489684 -0.046042573 84 80 54
-0.043 0.05473378 -0.047671393 76 72 46
-0.043 0.05473378 -0.049436975 66 57 42
-0.043 0.05473378 -0.05120262 59 50 35
-0.043 0.05473378 -0.0529682 47 38 41
-0.04 0.05489684 -0.054896906 28 19 22
-0.037 0.0550599 -0.05683607 22 17 19
-0.037 0.0550599 -0.058612168 16 11 13
-0.034 0.055222962 -0.060567174 19 14 16
-0.031 0.05538602 -0.06253263 17 12 14
-0.028 0.05554908 -0.064508684 22 15 0
-0.028 0.05554908 -0.06630056 25 18 2
-0.028 0.05554908 -0.068092436 23 20 12
-0.025 0.055712137 -0.070089534 31 28 20
-0.025 0.055712137 -0.071886666 32 23 8
-0.025 0.055712137 -0.07368387 29 20 5
-0.025 0.055712137 -0.07548101 34 16 13
-0.025 0.055712137 -0.07727815 39 21 18
-0.025 0.055712137 -0.079075366 39 29 0
-0.021999998 0.055875197 -0.081109196 55 45 9
-0.018999998 0.056038257 -0.08315363 56 46 29
-0.018999998 0.056038257 -0.08496129 67 57 40
-0.015999999 0.05620132 -0.087021425 69 59 49
-0.008999999 0.05658179 -0.08943581 69 59 49
-0.008999999 0.05658179 -0.091261 51 46 25
-0.008999999 0.05658179 -0.093086265 26 21 0
0.023 0.056439772 0.06772777 89 88 84
0.02 0.056281976 0.06566233 105 104 100
0.017 0.056124173 0.06360742 102 104 85
0.017 0.056124173 0.061736606 87 89 70
0.012999999 0.055913772 0.059641365 88 84 56
0.012999999 0.055913772 0.0577776 91 87 59
0.009999999 0.055755973 0.055756 93 89 70
0.0069999998 0.055598173 0.05374492 91 87 68
0.0039999993 0.055440374 0.051744357 91 87 61
0.0039999997 0.055440374 0.04989634 95 91 65
-5.707964E-10 0.055229973 0.04786601 95 91 74
-0.0030000005 0.055072173 0.0458935 94 90 73
-0.0030000005 0.055072173 0.044057753 92 88 69
-0.0060000005 0.054914374 0.042101026 93 89 70
-0.0060000005 0.054914374 0.040270537 95 93 76
-0.009 0.054756574 0.038329627 95 93 76
-0.009 0.054756574 0.0365044 96 98 79
-0.009 0.054756574 0.03467917 93 95 76
-0.009 0.054756574 0.032853946 92 94 75
-0.012 0.054598775 0.030939298 92 94 75
-0.012 0.054598775 0.029119367 89 91 79
-0.016 0.054388374 0.0271942 88 90 78
-0.016 0.054388374 0.025381247 91 91 80
-0.016 0.054388374 0.023568293 81 81 70
-0.016 0.054388374 0.02175534 80 77 67
-0.016 0.054388374 0.019942421 76 73 63
-0.016 0.054388374 0.018129466 76 70 65
-0.016 0.054388374 0.016316513 76 70 65
-0.016 0.054388374 0.014503559 75 66 69
-0.016 0.054388374 0.0126906065 73 64 67
-0.016 0.054388374 0.010877687 68 67 54
-0.019 0.054230575 0.009038433 67 66 53
-0.019 0.054230575 0.0072307396 67 65 59
-0.019 0.054230575 0.005423046 66 64 58
-0.019 0.054230575 0.0036153523 73 63 53
-0.022 0.05407277 0.0018024333 74 64 54
-0.022 0.05407277 -2.623474E-10 71 60 50
-0.022 0.05407277 -0.0018024682 69 58 48
-0.022 0.05407277 -0.0036048673 65 58 47
-0.022 0.05407277 -0.005407267 62 55 44
-0.022 0.05407277 -0.0072097345 51 46 25
-0.022 0.05407277 -0.009012134 58 53 32
-0.022 0.05407277 -0.010814601 62 55 44
-0.025 0.053914975 -0.012580181 64 57 46
-0.025 0.053914975 -0.014377319 68 61 50
-0.025 0.053914975 -0.016174529 67 60 49
-0.025 0.053914975 -0.017971667 62 60 54
-0.025 0.053914975 -0.019768875 58 56 50
-0.028 0.053757176 -0.021502893 59 51 47
-0.028 0.053757176 -0.023294773 59 51 47
-0.028 0.053757176 -0.025086721 53 51 45
-0.028 0.053757176 -0.0268786 49 47 41
-0.028 0.053757176 -0.028670548 46 46 30
-0.031 0.053599373 -0.030373007 46 46 30
-0.031 0.053599373 -0.032159626 49 48 35
-0.031 0.053599373 -0.033946317 54 53 40
-0.031 0.053599373 -0.035732932 56 54 48
-0.034 0.053441573 -0.03740916 56 54 48
-0.034 0.053441573 -0.03919052 56 52 58
-0.037 0.053283777 -0.0408509 73 69 75
-0.04 0.053125978 -0.042500827 73 73 55
-0.04 0.053125978 -0.044271667 77 77 59
-0.043 0.052968174 -0.045905814 82 79 53
-0.043 0.052968174 -0.047671393 67 64 38
-0.043 0.052968174 -0.049436975 62 51 48
-0.043 0.052968174 -0.05120262 53 42 39
-0.043 0.052968174 -0.0529682 34 30 29
-0.04 0.053125978 -0.054896906 16 12 11
-0.037 0.053283777 -0.05683607 18 13 15
-0.034 0.053441573 -0.058785748 21 16 18
-0.031 0.053599373 -0.060746014 21 17 16
-0.028 0.053757176 -0.06271673 21 17 16
-0.025 0.053914975 -0.06469804 19 17 2
-0.025 0.053914975 -0.06649518 22 20 5
-0.025 0.053914975 -0.06829232 26 24 9
-0.025 0.053914975 -0.070089534 30 28 13
-0.025 0.053914975 -0.071886666 29 27 10
-0.025 0.053914975 -0.07368387 29 27 10
-0.025 0.053914975 -0.07548101 37 22 18
-0.025 0.053914975 -0.07727815 43 28 24
-0.022 0.05407277 -0.0793068 46 37 1
-0.021999998 0.05407277 -0.081109196 55 46 10
-0.018999998 0.054230575 -0.08315363 55 45 35
-0.018999998 0.054230575 -0.08496129 61 51 41
-0.015999999 0.054388374 -0.087021425 61 50 40
-0.011999999 0.054598775 -0.08917807 57 46 36
-0.008999999 0.054756574 -0.091261 49 40 18
0.03 0.054914374 0.07006318 94 77 49
0.023 0.05455845 0.06772777 94 90 87
0.02 0.054405905 0.06566233 112 108 105
0.017 0.05425337 0.06360742 110 110 81
0.017 0.05425337 0.061736606 97 97 68
0.012999999 0.05404998 0.059641365 95 93 76
0.012999999 0.05404998 0.0577776 92 90 73
0.009999999 0.05389744 0.055756 92 88 69
0.0069999998 0.053744905 0.05374492 90 86 67
0.0039999993 0.05359236 0.051744357 91 87 61
0.0039999997 0.05359236 0.04989634 94 90 64
-5.707964E-10 0.053388976 0.04786601 98 89 67
-0.0030000005 0.053236436 0.0458935 98 89 67
-0.0030000005 0.053236436 0.044057753 93 89 72
-0.0060000005 0.053083897 0.042101026 92 88 71
-0.0060000005 0.053083897 0.040270537 90 87 77
-0.009 0.052931353 0.038329627 87 84 74
-0.009 0.052931353 0.0365044 87 87 78
-0.009 0.052931353 0.03467917 92 92 83
-0.012 0.052778818 0.032759264 92 94 71
-0.012 0.052778818 0.030939298 93 95 72
-0.012 0.052778818 0.029119367 83 85 75
-0.016 0.052575428 0.0271942 81 83 73
-0.016 0.052575428 0.025381247 83 84 70
-0.016 0.052575428 0.023568293 82 83 69
-0.016 0.052575428 0.02175534 79 79 68
-0.016 0.052575428 0.019942421 76 76 65
-0.016 0.052575428 0.018129466 76 69 71
-0.016 0.052575428 0.016316513 77 70 72
-0.016 0.052575428 0.014503559 74 70 78
-0.016 0.052575428 0.0126906065 70 66 74
-0.016 0.052575428 0.010877687 69 66 65
-0.019 0.05242289 0.009038433 68 65 64
-0.019 0.05242289 0.0072307396 67 65 59
-0.019 0.05242289 0.005423046 71 69 63
-0.019 0.05242289 0.0036153523 71 64 53
-0.019 0.05242289 0.0018076934 69 62 51
-0.022 0.05227035 -2.623474E-10 68 61 50
-0.022 0.05227035 -0.0018024682 66 59 48
-0.022 0.05227035 -0.0036048673 60 59 46
-0.022 0.05227035 -0.005407267 56 55 42
-0.022 0.05227035 -0.0072097345 47 45 39
-0.022 0.05227035 -0.009012134 55 53 47
-0.022 0.05227035 -0.010814601 58 57 44
-0.025 0.05211781 -0.012580181 58 57 44
-0.025 0.05211781 -0.014377319 57 57 57
-0.025 0.05211781 -0.016174529 68 68 68
-0.025 0.05211781 -0.017971667 72 66 50
-0.025 0.05211781 -0.019768875 62 56 40
-0.025 0.05211781 -0.021566013 61 53 49
-0.025 0.05211781 -0.023363154 60 52 48
-0.025 0.05211781 -0.025160361 55 54 41
-0.025 0.05211781 -0.0269575 51 50 37
-0.028 0.05196527 -0.028670548 49 47 41
-0.028 0.05196527 -0.030462427 47 45 39
-0.028 0.05196527 -0.03225431 52 44 40
-0.031 0.05181273 -0.033946317 55 47 43
-0.031 0.05181273 -0.035732932 55 46 49
-0.034 0.05166019 -0.03740916 62 53 56
-0.034 0.05166019 -0.03919052 56 55 60
-0.037 0.051507648 -0.0408509 71 70 75
-0.04 0.05135511 -0.042500827 73 75 45
-0.04 0.05135511 -0.044271667 72 74 44
-0.043 0.05120257 -0.045905814 70 68 29
-0.043 0.05120257 -0.047671393 38 36 0
-0.043 0.05120257 -0.049436975 24 13 54
-0.043 0.05120257 -0.05120262 22 11 52
-0.043 0.05120257 -0.0529682 20 12 31
-0.037 0.051507648 -0.055059966 18 10 29
-0.037 0.051507648 -0.05683607 18 12 21
-0.031 0.05181273 -0.058959328 19 13 22
-0.028 0.05196527 -0.060924854 18 13 15
-0.022 0.05227035 -0.06308494 21 16 18
-0.022 0.05227035 -0.0648874 21 18 10
-0.022 0.05227035 -0.066689804 19 16 8
-0.022 0.05227035 -0.068492204 27 17 11
-0.022 0.05227035 -0.07029467 29 19 13
-0.022 0.05227035 -0.07209707 30 20 14
-0.022 0.05227035 -0.07389954 33 23 17
-0.022 0.05227035 -0.07570194 35 23 27
-0.022 0.05227035 -0.07750434 49 37 41
-0.022 0.05227035 -0.0793068 49 40 18
-0.021999998 0.05227035 -0.081109196 51 42 20
-0.018999998 0.05242289 -0.08315363 55 44 34
-0.018999998 0.05242289 -0.08496129 59 48 38
-0.015999999 0.052575428 -0.087021425 57 50 39
-0.011999999 0.052778818 -0.08917807 47 40 29
-0.011999999 0.052778818 -0.090998 34 22 26
0.03 0.053020775 0.07006318 87 80 45
0.023 0.052677125 0.06772777 98 93 83
0.02 0.05252984 0.06566233 117 112 102
0.017 0.052382566 0.06360742 114 111 101
0.017 0.052382566 0.061736606 102 99 89
0.012999999 0.05218619 0.059641365 93 95 76
0.012999999 0.05218619 0.0577776 87 89 70
0.009999999 0.05203891 0.055756 91 87 68
0.0069999998 0.051891632 0.05374492 84 80 61
0.0039999993 0.05174435 0.051744357 87 79 50
0.0039999997 0.05174435 0.04989634 93 85 56
-5.707964E-10 0.051547978 0.04786601 95 86 62
-0.0030000005 0.051400695 0.0458935 94 85 61
-0.0030000005 0.051400695 0.044057753 94 84 67
-0.0060000005 0.05125342 0.042101026 97 87 70
-0.009000001 0.051106136 0.04015482 91 86 76
-0.009 0.051106136 0.038329627 90 85 75
-0.009 0.051106136 0.0365044 87 86 64
-0.012 0.050958857 0.034579232 93 92 70
-0.012 0.050958857 0.032759264 93 95 76
-0.012 0.050958857 0.030939298 87 89 70
-0.012 0.050958857 0.029119367 81 82 68
-0.016 0.050762486 0.0271942 75 76 62
-0.016 0.050762486 0.025381247 78 76 47
-0.016 0.050762486 0.023568293 85 83 54
-0.016 0.050762486 0.02175534 83 86 60
-0.016 0.050762486 0.019942421 79 82 56
-0.016 0.050762486 0.018129466 78 73 63
-0.016 0.050762486 0.016316513 79 74 64
-0.016 0.050762486 0.014503559 77 74 75
-0.016 0.050762486 0.0126906065 73 70 71
-0.016 0.050762486 0.010877687 66 69 61
-0.016 0.050762486 0.009064733 64 67 59
-0.019 0.050615203 0.0072307396 63 62 49
-0.019 0.050615203 0.005423046 64 63 50
-0.019 0.050615203 0.0036153523 66 59 48
-0.022 0.050467927 0.0018024333 68 61 50
-0.022 0.050467927 -2.623474E-10 63 60 61
-0.022 0.050467927 -0.0018024682 62 59 60
-0.022 0.050467927 -0.0036048673 59 62 43
-0.022 0.050467927 -0.005407267 55 58 39
-0.022 0.050467927 -0.0072097345 47 49 35
-0.022 0.050467927 -0.009012134 56 58 44
-0.022 0.050467927 -0.010814601 60 59 46
-0.025 0.050320644 -0.012580181 59 58 45
-0.025 0.050320644 -0.014377319 52 52 52
-0.025 0.050320644 -0.016174529 63 63 63
-0.025 0.050320644 -0.017971667 66 65 52
-0.025 0.050320644 -0.019768875 62 61 48
-0.025 0.050320644 -0.021566013 65 54 51
-0.025 0.050320644 -0.023363154 62 51 48
-0.025 0.050320644 -0.025160361 56 54 48
-0.025 0.050320644 -0.0269575 54 52 46
-0.025 0.050320644 -0.028754707 54 52 46
-0.025 0.050320644 -0.030551847 51 49 43
-0.028 0.050173365 -0.03225431 50 44 30
-0.028 0.050173365 -0.034046255 51 45 31
-0.028 0.050173365 -0.035838135 48 41 34
-0.031 0.050026085 -0.037519623 58 51 44
-0.034 0.049878802 -0.03919052 53 54 47
-0.037 0.049731527 -0.0408509 71 72 65
-0.04 0.049584243 -0.042500827 73 75 45
-0.043 0.049436964 -0.044140168 66 68 38
-0.043 0.049436964 -0.045905814 64 64 46
-0.043 0.049436964 -0.047671393 22 22 4
-0.043 0.049436964 -0.049436975 17 11 20
-0.046 0.049289685 -0.051050078 19 13 22
-0.046 0.049289685 -0.0528104 18 12 21
-0.037 0.049731527 -0.055059966 17 11 20
-0.034 0.049878802 -0.05700439 18 13 15
-0.025 0.050320644 -0.059306487 22 17 19
-0.015999999 0.050762486 -0.061640214 24 14 8
-0.015999999 0.050762486 -0.06345313 26 16 10
-0.019 0.050615203 -0.06507676 21 18 10
-0.019 0.050615203 -0.06688442 21 18 10
-0.019 0.050615203 -0.06869208 27 18 5
-0.022 0.050467927 -0.07029467 30 21 8
-0.022 0.050467927 -0.07209707 31 21 15
-0.022 0.050467927 -0.07389954 34 24 18
-0.022 0.050467927 -0.07570194 34 22 26
-0.022 0.050467927 -0.07750434 52 40 44
-0.022 0.050467927 -0.0793068 50 45 24
-0.021999998 0.050467927 -0.081109196 53 48 27
-0.018999998 0.050615203 -0.08315363 59 49 39
-0.018999998 0.050615203 -0.08496129 61 51 41
-0.015999999 0.050762486 -0.087021425 54 51 52
-0.011999999 0.050958857 -0.08917807 35 32 33
-0.011999999 0.050958857 -0.090998 15 10 0
0.027 0.050985157 0.06986856 88 79 64
0.027 0.050985157 0.067980245 98 95 73
0.023 0.0507958 0.065846436 115 112 90
0.023 0.0507958 0.0639651 115 112 104
0.017 0.050511755 0.061736606 103 100 92
0.012999999 0.0503224 0.059641365 86 86 75
0.012999999 0.0503224 0.0577776 85 85 74
0.009999999 0.05018038 0.055756 86 85 63
0.0069999998 0.05003836 0.05374492 74 73 51
0.0039999993 0.04989634 0.051744357 80 77 67
0.0039999997 0.04989634 0.04989634 87 84 74
-5.707964E-10 0.049706977 0.04786601 90 86 67
-0.0030000005 0.04956496 0.0458935 90 86 67
-0.0030000005 0.04956496 0.044057753 90 85 75
-0.0060000005 0.04942294 0.042101026 91 86 76
-0.009000001 0.04928092 0.04015482 88 85 75
-0.009 0.04928092 0.038329627 88 85 75
-0.009 0.04928092 0.0365044 85 85 74
-0.012 0.0491389 0.034579232 84 84 73
-0.012 0.0491389 0.032759264 84 86 63
-0.012 0.0491389 0.030939298 79 81 58
-0.016 0.04894954 0.029007154 78 73 63
-0.016 0.04894954 0.0271942 75 70 60
-0.016 0.04894954 0.025381247 74 70 42
-0.016 0.04894954 0.023568293 84 80 52
-0.016 0.04894954 0.02175534 84 84 55
-0.016 0.04894954 0.019942421 84 84 55
-0.016 0.04894954 0.018129466 81 81 54
-0.016 0.04894954 0.016316513 77 77 50
-0.016 0.04894954 0.014503559 78 73 63
-0.016 0.04894954 0.0126906065 79 74 64
-0.016 0.04894954 0.010877687 73 73 55
-0.019 0.048807517 0.009038433 69 69 51
-0.019 0.048807517 0.0072307396 66 65 52
-0.019 0.048807517 0.005423046 62 61 48
-0.019 0.048807517 0.0036153523 64 57 46
-0.022 0.0486655 0.0018024333 66 59 48
-0.022 0.0486655 -2.623474E-10 64 60 66
-0.022 0.0486655 -0.0018024682 65 61 67
-0.022 0.0486655 -0.0036048673 62 62 44
-0.022 0.0486655 -0.005407267 62 62 44
-0.022 0.0486655 -0.0072097345 58 58 40
-0.022 0.0486655 -0.009012134 62 62 44
-0.022 0.0486655 -0.010814601 61 61 43
-0.025 0.04852348 -0.012580181 64 64 46
-0.025 0.04852348 -0.014377319 63 62 67
-0.025 0.04852348 -0.016174529 63 62 67
-0.025 0.04852348 -0.017971667 65 64 51
-0.025 0.04852348 -0.019768875 62 61 48
-0.025 0.04852348 -0.021566013 62 54 50
-0.025 0.04852348 -0.023363154 60 52 48
-0.025 0.04852348 -0.025160361 55 53 47
-0.025 0.04852348 -0.0269575 55 53 47
-0.025 0.04852348 -0.028754707 55 52 53
-0.025 0.04852348 -0.030551847 53 50 51
-0.025 0.04852348 -0.032348987 55 55 37
-0.028 0.04838146 -0.034046255 55 55 37
-0.028 0.04838146 -0.035838135 58 49 52
-0.031 0.04823944 -0.037519623 78 69 72
-0.034 0.04809742 -0.03919052 87 88 41
-0.037 0.047955398 -0.0408509 87 88 41
-0.04 0.047813382 -0.042500827 71 74 36
-0.043 0.04767136 -0.044140168 53 56 18
-0.043 0.04767136 -0.045905814 43 40 41
-0.046 0.04752934 -0.047529373 22 19 20
-0.046 0.04752934 -0.049289692 22 17 19
-0.046 0.04752934 -0.051050078 21 16 18
-0.046 0.04752934 -0.0528104 11 11 11
-0.046 0.04752934 -0.054570787 9 9 9
-0.015999999 0.04894954 -0.058014307 15 10 12
-0.015999999 0.04894954 -0.059827223 18 13 15
-0.015999999 0.04894954 -0.061640214 19 16 8
-0.015999999 0.04894954 -0.06345313 19 16 8
-0.015999999 0.04894954 -0.06526612 21 18 10
-0.015999999 0.04894954 -0.06707904 21 18 10
-0.019 0.048807517 -0.06869208 19 17 2
-0.019 0.048807517 -0.07049981 21 19 4
-0.022 0.0486655 -0.07209707 30 15 27
-0.022 0.0486655 -0.07389954 34 19 31
-0.022 0.0486655 -0.07570194 37 25 29
-0.022 0.0486655 -0.07750434 57 45 49
-0.022 0.0486655 -0.0793068 59 53 37
-0.021999998 0.0486655 -0.081109196 61 55 39
-0.018999998 0.048807517 -0.08315363 62 54 50
-0.018999998 0.048807517 -0.08496129 78 70 66
-0.018999998 0.048807517 -0.08676894 67 65 59
-0.015999999 0.04894954 -0.08883441 35 33 27
-0.015999999 0.04894954 -0.09064733 25 19 0
0.03 0.049233582 0.07195678 65 56 41
0.027 0.04909682 0.06986856 82 73 58
0.027 0.04909682 0.067980245 96 95 73
0.023 0.048914474 0.065846436 111 110 88
0.023 0.048914474 0.0639651 116 113 103
0.02 0.048777714 0.061910186 101 98 88
0.017 0.04864095 0.05986579 85 87 75
0.012999999 0.048458606 0.0577776 86 88 76
0.009999999 0.048321847 0.055756 87 84 74
0.009999999 0.048321847 0.053897463 76 73 63
0.0039999993 0.04804833 0.051744357 84 79 65
0.0039999997 0.04804833 0.04989634 88 83 69
-5.707964E-10 0.047865983 0.04786601 96 95 73
-0.0030000005 0.04772922 0.0458935 95 94 72
-0.0030000005 0.04772922 0.044057753 85 86 81
-0.0060000005 0.04759246 0.042101026 84 85 80
-0.0060000005 0.04759246 0.040270537 85 85 74
-0.009 0.0474557 0.038329627 85 85 74
-0.009 0.0474557 0.0365044 84 84 75
-0.012 0.04731894 0.034579232 84 84 75
-0.012 0.04731894 0.032759264 83 84 70
-0.012 0.04731894 0.030939298 80 81 67
-0.016 0.047136594 0.029007154 83 78 64
-0.016 0.047136594 0.0271942 73 68 54
-0.016 0.047136594 0.025381247 73 67 51
-0.016 0.047136594 0.023568293 85 79 63
-0.016 0.047136594 0.02175534 81 84 58
-0.016 0.047136594 0.019942421 82 85 59
-0.012 0.04731894 0.0181996 82 80 65
-0.012 0.04731894 0.016379632 73 71 56
-0.012 0.04731894 0.014559666 71 64 53
-0.016 0.047136594 0.0126906065 73 66 55
-0.016 0.047136594 0.010877687 76 69 60
-0.019 0.046999834 0.009038433 73 66 57
-0.019 0.046999834 0.0072307396 72 70 64
-0.019 0.046999834 0.005423046 69 67 61
-0.019 0.046999834 0.0036153523 62 61 48
-0.022 0.046863075 0.0018024333 61 60 47
-0.022 0.046863075 -2.623474E-10 66 57 60
-0.022 0.046863075 -0.0018024682 64 55 58
-0.022 0.046863075 -0.0036048673 63 60 19
-0.022 0.046863075 -0.005407267 65 62 21
-0.022 0.046863075 -0.0072097345 66 59 20
-0.022 0.046863075 -0.009012134 63 56 17
-0.022 0.046863075 -0.010814601 52 52 32
-0.025 0.046726316 -0.012580181 64 64 44
-0.025 0.046726316 -0.014377319 64 67 59
-0.025 0.046726316 -0.016174529 62 65 57
-0.025 0.046726316 -0.017971667 64 62 56
-0.025 0.046726316 -0.019768875 61 59 53
-0.025 0.046726316 -0.021566013 63 55 51
-0.025 0.046726316 -0.023363154 60 52 48
-0.025 0.046726316 -0.025160361 55 54 41
-0.025 0.046726316 -0.0269575 55 54 41
-0.025 0.046726316 -0.028754707 52 50 44
-0.025 0.046726316 -0.030551847 52 50 44
-0.025 0.046726316 -0.032348987 53 52 39
-0.028 0.046589553 -0.034046255 51 50 37
-0.028 0.046589553 -0.035838135 56 48 44
-0.031 0.046452794 -0.037519623 86 78 74
-0.034 0.046316035 -0.03919052 93 90 82
-0.037 0.046179276 -0.0408509 86 83 75
-0.04 0.046042513 -0.042500827 64 74 41
-0.043 0.045905754 -0.044140168 39 49 16
-0.043 0.045905754 -0.045905814 25 22 14
-0.046 0.045768995 -0.047529373 19 16 8
-0.046 0.045768995 -0.049289692 22 17 19
-0.046 0.045768995 -0.051050078 14 9 11
-0.046 0.045768995 -0.0528104 7 7 7
-0.008999999 0.0474557 -0.056581862 6 6 6
-0.011999999 0.04731894 -0.058238734 6 11 9
-0.011999999 0.04731894 -0.060058665 12 17 15
-0.011999999 0.04731894 -0.06187867 19 16 8
-0.011999999 0.04731894 -0.0636986 19 16 8
-0.015999999 0.047136594 -0.06526612 23 20 12
-0.015999999 0.047136594 -0.06707904 23 20 12
-0.015999999 0.047136594 -0.06889196 23 20 12
-0.019 0.046999834 -0.07049981 24 21 13
-0.019 0.046999834 -0.07230747 31 16 30
-0.019 0.046999834 -0.074115194 35 20 34
-0.019 0.046999834 -0.075922854 31 26 28
-0.019 0.046999834 -0.077730514 53 48 50
-0.019 0.046999834 -0.07953824 60 54 38
-0.018999998 0.046999834 -0.0813459 62 56 40
-0.018999998 0.046999834 -0.08315363 56 56 38
-0.018999998 0.046999834 -0.08496129 69 69 51
-0.018999998 0.046999834 -0.08676894 64 67 59
-0.015999999 0.047136594 -0.08883441 42 45 37
-0.015999999 0.047136594 -0.09064733 37 22 4
0.03 0.04733998 0.07195678 64 57 46
0.03 0.04733998 0.07006318 72 65 54
0.027 0.04720848 0.067980245 92 89 58
0.023 0.04703315 0.065846436 111 108 77
0.023 0.04703315 0.0639651 106 104 73
0.023 0.04703315 0.062083766 90 88 57
0.017 0.046770148 0.05986579 87 86 82
0.012999999 0.046594813 0.0577776 87 86 82
0.009999999 0.046463314 0.055756 85 80 68
0.009999999 0.046463314 0.053897463 71 66 54
0.0039999993 0.046200316 0.051744357 78 69 65
0.0039999997 0.046200316 0.04989634 87 78 74
-5.707964E-10 0.046024982 0.04786601 97 91 47
-0.0030000005 0.045893483 0.0458935 103 97 53
-0.0030000005 0.045893483 0.044057753 91 88 80
-0.0030000005 0.045893483 0.042222008 86 83 75
-0.0060000005 0.04576198 0.040270537 85 85 76
-0.009 0.04563048 0.038329627 86 86 77
-0.009 0.04563048 0.0365044 85 84 80
-0.012 0.045498982 0.034579232 83 82 78
-0.012 0.045498982 0.032759264 83 80 72
-0.012 0.045498982 0.030939298 81 78 70
-0.016 0.04532365 0.029007154 80 77 67
-0.016 0.04532365 0.0271942 75 72 62
-0.016 0.04532365 0.025381247 74 72 66
-0.016 0.04532365 0.023568293 80 78 72
-0.016 0.04532365 0.02175534 80 78 63
-0.016 0.04532365 0.019942421 78 76 61
-0.012 0.045498982 0.0181996 80 74 58
-0.012 0.045498982 0.016379632 75 69 53
-0.012 0.045498982 0.014559666 72 64 60
-0.016 0.04532365 0.0126906065 73 65 61
-0.016 0.04532365 0.010877687 69 68 55
-0.019 0.04519215 0.009038433 69 68 55
-0.019 0.04519215 0.0072307396 76 71 61
-0.019 0.04519215 0.005423046 76 71 61
-0.022 0.04506065 0.0036048323 69 62 51
-0.022 0.04506065 0.0018024333 65 58 47
-0.022 0.04506065 -2.623474E-10 60 59 46
-0.022 0.04506065 -0.0018024682 58 57 44
-0.022 0.04506065 -0.0036048673 60 59 6
-0.022 0.04506065 -0.005407267 60 59 6
-0.022 0.04506065 -0.0072097345 61 60 16
-0.022 0.04506065 -0.009012134 58 57 13
-0.022 0.04506065 -0.010814601 54 52 46
-0.022 0.04506065 -0.012617 64 62 56
-0.022 0.04506065 -0.014419399 64 63 50
-0.022 0.04506065 -0.016221866 65 64 51
-0.025 0.04492915 -0.017971667 65 63 57
-0.025 0.04492915 -0.019768875 64 62 56
-0.025 0.04492915 -0.021566013 66 60 44
-0.025 0.04492915 -0.023363154 60 54 38
-0.025 0.04492915 -0.025160361 52 50 44
-0.022 0.04506065 -0.0270364 51 49 43
-0.025 0.04492915 -0.028754707 46 44 38
-0.025 0.04492915 -0.030551847 44 42 36
-0.025 0.04492915 -0.032348987 49 51 37
-0.028 0.044797648 -0.034046255 48 50 36
-0.031 0.04466615 -0.035732932 56 54 48
-0.034 0.04453465 -0.03740916 81 79 73
-0.034 0.04453465 -0.03919052 81 77 74
-0.037 0.044403147 -0.0408509 66 62 59
-0.04 0.044271648 -0.042500827 68 66 27
-0.043 0.04414015 -0.044140168 51 49 10
-0.043 0.04414015 -0.045905814 31 25 34
-0.046 0.04400865 -0.047529373 15 9 18
-0.046 0.04400865 -0.049289692 16 12 11
-0.046 0.04400865 -0.051050078 13 9 8
-0.0059999996 0.04576198 -0.0549144 8 8 8
-0.008999999 0.04563048 -0.056581862 9 9 9
-0.008999999 0.04563048 -0.058407053 19 16 8
-0.008999999 0.04563048 -0.06023225 22 19 11
-0.011999999 0.045498982 -0.06187867 22 17 19
-0.011999999 0.045498982 -0.0636986 21 16 18
-0.011999999 0.045498982 -0.0655186 23 20 12
-0.015999999 0.04532365 -0.06707904 23 20 12
-0.015999999 0.04532365 -0.06889196 24 20 19
-0.015999999 0.04532365 -0.07070495 27 23 22
-0.019 0.04519215 -0.07230747 31 23 42
-0.019 0.04519215 -0.074115194 34 26 45
-0.019 0.04519215 -0.075922854 37 33 32
-0.019 0.04519215 -0.077730514 60 56 55
-0.019 0.04519215 -0.07953824 59 59 41
-0.015999999 0.04532365 -0.081582606 76 76 58
-0.015999999 0.04532365 -0.08339559 78 76 47
-0.018999998 0.04519215 -0.08496129 79 77 48
-0.018999998 0.04519215 -0.08676894 79 75 58
-0.015999999 0.04532365 -0.08883441 83 79 62
-0.015999999 0.04532365 -0.09064733 71 69 63
0.03 0.045446385 0.07195678 63 56 45
0.03 0.045446385 0.07006318 74 67 56
0.027 0.045320146 0.067980245 81 80 41
0.027 0.045320146 0.0660919 103 102 63
0.023 0.045151826 0.0639651 102 99 75
0.023 0.045151826 0.062083766 93 90 66
0.017 0.044899344 0.05986579 89 86 78
0.012999999 0.044731025 0.0577776 88 85 77
0.009999999 0.044604786 0.055756 84 78 71
0.009999999 0.044604786 0.053897463 73 67 60
0.0069999998 0.044478543 0.05189164 74 64 54
0.0039999997 0.044352304 0.04989634 79 69 59
-5.707964E-10 0.044183984 0.04786601 88 80 51
-0.0030000005 0.04405774 0.0458935 94 86 57
-0.0030000005 0.04405774 0.044057753 90 85 75
-0.0030000005 0.04405774 0.042222008 86 81 71
-0.0060000005 0.043931503 0.040270537 79 80 64
-0.009 0.043805264 0.038329627 82 83 67
-0.009 0.043805264 0.0365044 84 83 79
-0.012 0.043679025 0.034579232 81 80 76
-0.012 0.043679025 0.032759264 80 77 67
-0.012 0.043679025 0.030939298 80 77 67
-0.016 0.043510705 0.029007154 78 78 67
-0.016 0.043510705 0.0271942 72 72 61
-0.016 0.043510705 0.025381247 75 75 57
-0.016 0.043510705 0.023568293 77 77 59
-0.016 0.043510705 0.02175534 78 75 65
-0.016 0.043510705 0.019942421 75 72 62
-0.012 0.043679025 0.0181996 78 69 61
-0.012 0.043679025 0.016379632 76 67 59
-0.012 0.043679025 0.014559666 71 64 53
-0.016 0.043510705 0.0126906065 72 65 54
-0.016 0.043510705 0.010877687 68 67 54
-0.019 0.043384463 0.009038433 68 67 54
-0.019 0.043384463 0.0072307396 75 68 57
-0.019 0.043384463 0.005423046 76 69 58
-0.022 0.043258224 0.0036048323 69 61 57
-0.022 0.043258224 0.0018024333 64 56 52
-0.022 0.043258224 -2.623474E-10 57 56 43
-0.022 0.043258224 -0.0018024682 54 53 40
-0.022 0.043258224 -0.0036048673 52 54 16
-0.022 0.043258224 -0.005407267 52 54 16
-0.022 0.043258224 -0.0072097345 55 55 37
-0.022 0.043258224 -0.009012134 56 56 38
-0.022 0.043258224 -0.010814601 55 54 41
-0.022 0.043258224 -0.012617 61 60 47
-0.022 0.043258224 -0.014419399 63 62 49
-0.022 0.043258224 -0.016221866 65 64 51
-0.022 0.043258224 -0.018024268 66 63 64
-0.022 0.043258224 -0.019826734 65 62 63
-0.022 0.043258224 -0.021629132 61 59 53
-0.022 0.043258224 -0.023431534 54 52 46
-0.022 0.043258224 -0.025234 51 49 43
-0.022 0.043258224 -0.0270364 45 43 37
-0.025 0.043131985 -0.028754707 42 43 18
-0.025 0.043131985 -0.030551847 45 46 21
-0.025 0.043131985 -0.032348987 44 47 30
-0.028 0.043005746 -0.034046255 43 46 29
-0.031 0.042879507 -0.035732932 56 54 48
-0.034 0.042753264 -0.03740916 72 70 64
-0.034 0.042753264 -0.03919052 72 64 60
-0.037 0.042627025 -0.0408509 69 61 57
-0.04 0.042500786 -0.042500827 59 52 41
-0.043 0.042374548 -0.044140168 53 46 35
-0.043 0.042374548 -0.045905814 49 41 37
-0.043 0.042374548 -0.047671393 18 10 6
-0.043 0.042374548 -0.049436975 12 9 10
-0.0059999996 0.043931503 -0.053083945 9 6 7
-0.0059999996 0.043931503 -0.0549144 7 4 3
-0.0059999996 0.043931503 -0.056744922 13 10 9
-0.008999999 0.043805264 -0.058407053 24 12 14
-0.008999999 0.043805264 -0.06023225 31 19 21
-0.011999999 0.043679025 -0.06187867 27 15 19
-0.011999999 0.043679025 -0.0636986 23 11 15
-0.011999999 0.043679025 -0.0655186 22 17 19
-0.011999999 0.043679025 -0.06733853 23 18 20
-0.015999999 0.043510705 -0.06889196 23 20 12
-0.015999999 0.043510705 -0.07070495 26 23 15
-0.015999999 0.043510705 -0.072517864 26 21 23
-0.015999999 0.043510705 -0.07433086 32 27 29
-0.015999999 0.043510705 -0.07614378 41 36 38
-0.015999999 0.043510705 -0.0779567 50 45 47
-0.015999999 0.043510705 -0.079769686 60 60 42
-0.015999999 0.043510705 -0.081582606 77 77 59
-0.015999999 0.043510705 -0.08339559 81 79 64
-0.015999999 0.043510705 -0.085208505 79 77 62
-0.015999999 0.043510705 -0.087021425 80 74 58
-0.015999999 0.043510705 -0.08883441 89 83 67
-0.015999999 0.043510705 -0.09064733 83 83 74
0.03 0.043552782 0.07195678 65 59 43
0.03 0.043552782 0.07006318 77 71 55
0.027 0.043431804 0.067980245 79 79 37
0.027 0.043431804 0.0660919 102 102 60
0.023 0.0432705 0.0639651 100 99 77
0.023 0.0432705 0.062083766 96 95 73
0.017 0.043028537 0.05986579 90 90 81
0.012999999 0.042867232 0.0577776 87 87 78
0.009999999 0.042746253 0.055756 82 77 81
0.009999999 0.042746253 0.053897463 72 67 71
0.0069999998 0.04262527 0.05189164 71 63 59
0.0039999997 0.042504292 0.04989634 62 54 50
-5.707964E-10 0.042342987 0.04786601 78 74 57
-0.0030000005 0.042222008 0.0458935 88 84 67
-0.0030000005 0.042222008 0.044057753 86 83 52
-0.0030000005 0.042222008 0.042222008 85 82 51
-0.0060000005 0.042101026 0.040270537 83 81 68
-0.009 0.041980047 0.038329627 83 81 68
-0.009 0.041980047 0.0365044 83 79 76
-0.012 0.041859064 0.034579232 80 76 73
-0.012 0.041859064 0.032759264 81 77 74
-0.012 0.041859064 0.030939298 81 77 74
-0.016 0.04169776 0.029007154 81 79 64
-0.016 0.04169776 0.0271942 80 78 63
-0.016 0.04169776 0.025381247 78 79 63
-0.016 0.04169776 0.023568293 78 79 63
-0.016 0.04169776 0.02175534 83 78 68
-0.016 0.04169776 0.019942421 78 73 63
-0.012 0.041859064 0.0181996 75 65 57
-0.012 0.041859064 0.016379632 74 64 56
-0.012 0.041859064 0.014559666 66 59 48
-0.016 0.04169776 0.0126906065 66 59 48
-0.016 0.04169776 0.010877687 72 68 40
-0.019 0.041576777 0.009038433 73 69 41
-0.019 0.041576777 0.0072307396 71 62 47
-0.019 0.041576777 0.005423046 65 56 41
-0.022 0.041455798 0.0036048323 62 51 48
-0.022 0.041455798 0.0018024333 60 49 46
-0.022 0.041455798 -2.623474E-10 55 48 37
-0.022 0.041455798 -0.0018024682 51 44 33
-0.022 0.041455798 -0.0036048673 50 50 30
-0.022 0.041455798 -0.005407267 51 51 31
-0.022 0.041455798 -0.0072097345 51 50 37
-0.022 0.041455798 -0.009012134 54 53 40
-0.022 0.041455798 -0.010814601 55 53 47
-0.022 0.041455798 -0.012617 59 57 51
-0.022 0.041455798 -0.014419399 63 56 45
-0.022 0.041455798 -0.016221866 66 59 48
-0.022 0.041455798 -0.018024268 72 63 66
-0.022 0.041455798 -0.019826734 69 60 63
-0.022 0.041455798 -0.021629132 56 53 52
-0.022 0.041455798 -0.023431534 54 51 50
-0.022 0.041455798 -0.025234 51 49 43
-0.022 0.041455798 -0.0270364 45 43 37
-0.025 0.04133482 -0.028754707 42 44 2
-0.025 0.04133482 -0.030551847 45 47 5
-0.025 0.04133482 -0.032348987 43 41 33
-0.028 0.04121384 -0.034046255 47 45 37
-0.031 0.04109286 -0.035732932 55 53 47
-0.034 0.04097188 -0.03740916 68 66 60
-0.034 0.04097188 -0.03919052 71 62 47
-0.037 0.0408509 -0.0408509 64 55 40
-0.04 0.040729918 -0.042500827 62 52 42
-0.046 0.04048796 -0.04400867 45 35 25
-0.046 0.04048796 -0.045769054 40 28 32
-0.046 0.04048796 -0.047529373 20 8 12
-0.046 0.04048796 -0.049289692 13 7 16
-0.0029999993 0.042222008 -0.05323649 10 4 13
-0.0029999993 0.042222008 -0.0550722 7 3 9
-0.0059999996 0.042101026 -0.056744922 11 7 13
-0.0059999996 0.042101026 -0.058575373 26 16 10
-0.008999999 0.041980047 -0.06023225 29 19 13
-0.008999999 0.041980047 -0.062057506 21 15 24
-0.008999999 0.041980047 -0.0638827 18 12 21
-0.011999999 0.041859064 -0.0655186 21 15 26
-0.011999999 0.041859064 -0.06733853 22 16 27
-0.011999999 0.041859064 -0.069158465 23 20 12
-0.011999999 0.041859064 -0.07097847 19 16 8
-0.011999999 0.041859064 -0.0727984 16 16 0
-0.011999999 0.041859064 -0.0746184 18 18 0
-0.015999999 0.04169776 -0.07614378 19 14 16
-0.015999999 0.04169776 -0.0779567 23 18 20
-0.011999999 0.041859064 -0.08007827 35 30 32
-0.011999999 0.041859064 -0.0818982 81 76 78
-0.015999999 0.04169776 -0.08339559 87 86 64
-0.015999999 0.04169776 -0.085208505 86 85 63
-0.015999999 0.04169776 -0.087021425 86 83 75
-0.011999999 0.041859064 -0.08917807 86 83 75
-0.011999999 0.041859064 -0.090998 86 88 67
0.03 0.041659188 0.07006318 73 66 39
0.03 0.041659188 0.06816961 78 78 36
0.027 0.04154347 0.0660919 101 101 59
0.027 0.04154347 0.06420355 98 98 87
0.023 0.041389175 0.062083766 97 97 86
0.02 0.041273452 0.06003411 97 97 86
0.012999999 0.04100344 0.0577776 90 90 79
0.009999999 0.04088772 0.055756 88 84 81
0.009999999 0.04088772 0.053897463 80 76 73
0.0069999998 0.040772 0.05189164 75 66 69
0.0039999997 0.04065628 0.04989634 59 50 53
-5.707964E-10 0.040501986 0.04786601 60 53 42
-5.4884264E-10 0.040501986 0.046025 68 61 50
-0.0030000005 0.040386267 0.044057753 73 67 32
-0.0030000005 0.040386267 0.042222008 79 73 38
-0.0060000005 0.040270545 0.040270537 90 80 70
-0.009 0.040154826 0.038329627 90 80 70
-0.009 0.040154826 0.0365044 85 79 72
-0.012 0.040039107 0.034579232 84 78 71
-0.012 0.040039107 0.032759264 82 78 75
-0.012 0.040039107 0.030939298 81 77 74
-0.012 0.040039107 0.029119367 79 79 70
-0.016 0.039884817 0.0271942 80 80 71
-0.016 0.039884817 0.025381247 79 79 68
-0.016 0.039884817 0.023568293 79 79 68
-0.016 0.039884817 0.02175534 84 78 71
-0.016 0.039884817 0.019942421 74 68 61
-0.012 0.040039107 0.0181996 79 62 56
-0.012 0.040039107 0.016379632 78 61 55
-0.016 0.039884817 0.014503559 67 63 35
-0.016 0.039884817 0.0126906065 63 59 31
-0.016 0.039884817 0.010877687 64 55 40
-0.019 0.0397691 0.009038433 64 55 40
-0.019 0.0397691 0.0072307396 62 52 42
-0.019 0.0397691 0.005423046 61 51 41
-0.022 0.039653372 0.0036048323 61 52 37
-0.022 0.039653372 0.0018024333 59 50 35
-0.022 0.039653372 -2.623474E-10 56 49 38
-0.022 0.039653372 -0.0018024682 56 49 38
-0.022 0.039653372 -0.0036048673 52 52 32
-0.022 0.039653372 -0.005407267 52 52 32
-0.022 0.039653372 -0.0072097345 55 48 37
-0.022 0.039653372 -0.009012134 59 52 41
-0.022 0.039653372 -0.010814601 60 53 42
-0.022 0.039653372 -0.012617 63 56 45
-0.022 0.039653372 -0.014419399 66 57 42
-0.022 0.039653372 -0.016221866 70 61 46
-0.022 0.039653372 -0.018024268 70 62 58
-0.022 0.039653372 -0.019826734 66 58 54
-0.022 0.039653372 -0.021629132 54 52 46
-0.022 0.039653372 -0.023431534 51 49 43
-0.022 0.039653372 -0.025234 53 45 41
-0.022 0.039653372 -0.0270364 50 42 38
-0.025 0.039537653 -0.028754707 48 43 22
-0.025 0.039537653 -0.030551847 49 44 23
-0.025 0.039537653 -0.032348987 50 42 38
-0.028 0.039421935 -0.034046255 57 49 45
-0.031 0.039306212 -0.035732932 59 52 41
-0.034 0.039190494 -0.03740916 67 60 49
-0.037 0.039074775 -0.039074797 66 59 48
-0.037 0.039074775 -0.0408509 64 57 46
-0.04 0.038959052 -0.042500827 61 54 43
-0.046 0.038727615 -0.04400867 42 35 24
-0.046 0.038727615 -0.045769054 40 28 32
-0.046 0.038727615 -0.047529373 28 16 20
6.147036E-10 0.040501986 -0.051547986 12 8 16
-0.0029999993 0.040386267 -0.05323649 10 6 14
-0.0029999993 0.040386267 -0.0550722 10 7 8
-0.0029999993 0.040386267 -0.05690798 12 9 10
-0.0059999996 0.040270545 -0.058575373 18 14 13
-0.008999999 0.040154826 -0.06023225 19 15 14
-0.008999999 0.040154826 -0.062057506 19 13 22
-0.008999999 0.040154826 -0.0638827 18 12 21
-0.011999999 0.040039107 -0.0655186 21 15 24
-0.011999999 0.040039107 -0.06733853 21 15 24
-0.011999999 0.040039107 -0.069158465 22 17 19
-0.011999999 0.040039107 -0.07097847 22 17 19
-0.011999999 0.040039107 -0.0727984 19 17 2
-0.011999999 0.040039107 -0.0746184 18 16 1
-0.011999999 0.040039107 -0.07643833 13 10 11
-0.011999999 0.040039107 -0.07825826 22 19 20
-0.011999999 0.040039107 -0.08007827 35 25 19
-0.011999999 0.040039107 -0.0818982 86 76 70
-0.015999999 0.039884817 -0.08339559 87 87 78
-0.015999999 0.039884817 -0.085208505 93 93 84
-0.015999999 0.039884817 -0.087021425 90 95 82
-0.015999999 0.039884817 -0.08883441 85 90 77
-0.015999999 0.039884817 -0.09064733 88 88 61
0.03 0.03976559 0.07006318 74 60 25
0.03 0.03976559 0.06816961 74 68 33
0.027 0.039655127 0.0660919 105 99 64
0.027 0.039655127 0.06420355 100 100 91
0.023 0.03950785 0.062083766 99 99 90
0.02 0.03939739 0.06003411 97 99 80
0.012999999 0.039139647 0.0577776 96 98 79
0.009999999 0.03902919 0.055756 101 96 98
0.009999999 0.03902919 0.053897463 108 103 105
0.0069999998 0.038918726 0.05189164 98 94 77
0.0039999997 0.03880827 0.04989634 82 78 61
-5.707964E-10 0.03866099 0.04786601 75 68 57
-5.4884264E-10 0.03866099 0.046025 62 55 44
-0.0030000005 0.03855053 0.044057753 56 56 38
-0.0030000005 0.03855053 0.042222008 59 59 41
-0.0060000005 0.03844007 0.040270537 67 65 59
-0.0060000005 0.03844007 0.038440086 83 81 75
-0.009 0.03832961 0.0365044 82 80 65
-0.009 0.03832961 0.03467917 81 79 64
-0.012 0.03821915 0.032759264 80 76 73
-0.012 0.03821915 0.030939298 80 76 73
-0.012 0.03821915 0.029119367 78 78 67
-0.016 0.038071867 0.0271942 80 80 69
-0.016 0.038071867 0.025381247 82 80 65
-0.016 0.038071867 0.023568293 80 78 63
-0.016 0.038071867 0.02175534 80 74 58
-0.016 0.038071867 0.019942421 70 64 48
-0.012 0.03821915 0.0181996 71 61 51
-0.012 0.03821915 0.016379632 70 60 50
-0.016 0.038071867 0.014503559 63 60 19
-0.016 0.038071867 0.0126906065 63 60 19
-0.016 0.038071867 0.010877687 64 58 42
-0.019 0.037961412 0.009038433 59 53 37
-0.019 0.037961412 0.0072307396 60 49 39
-0.019 0.037961412 0.005423046 60 49 39
-0.022 0.03785095 0.0036048323 54 44 25
-0.022 0.03785095 0.0018024333 56 46 27
-0.022 0.03785095 -2.623474E-10 53 46 35
-0.022 0.03785095 -0.0018024682 53 46 35
-0.022 0.03785095 -0.0036048673 57 50 39
-0.019 0.037961412 -0.005423046 57 50 39
-0.022 0.03785095 -0.0072097345 57 49 45
-0.022 0.03785095 -0.009012134 62 54 50
-0.022 0.03785095 -0.010814601 56 55 42
-0.022 0.03785095 -0.012617 56 55 42
-0.022 0.03785095 -0.014419399 63 60 29
-0.022 0.03785095 -0.016221866 67 64 33
-0.022 0.03785095 -0.018024268 66 60 44
-0.022 0.03785095 -0.019826734 63 57 41
-0.022 0.03785095 -0.021629132 51 48 47
-0.022 0.03785095 -0.023431534 50 47 46
-0.022 0.03785095 -0.025234 50 48 42
-0.022 0.03785095 -0.0270364 46 44 38
-0.025 0.03774049 -0.028754707 49 43 29
-0.025 0.03774049 -0.030551847 48 42 28
-0.025 0.03774049 -0.032348987 49 40 43
-0.028 0.037630033 -0.034046255 64 55 58
-0.031 0.03751957 -0.035732932 59 59 41
-0.034 0.03740911 -0.03740916 59 59 41
-0.037 0.03729865 -0.039074797 60 58 52
-0.037 0.03729865 -0.0408509 60 58 52
-0.04 0.03718819 -0.042500827 62 55 44
-0.046 0.03696727 -0.04400867 44 37 26
-0.046 0.03696727 -0.045769054 38 31 47
-0.046 0.03696727 -0.047529373 34 27 43
6.147036E-10 0.03866099 -0.051547986 10 9 16
-0.0029999993 0.03855053 -0.05323649 9 8 15
-0.0029999993 0.03855053 -0.0550722 8 8 8
-0.0029999993 0.03855053 -0.05690798 8 8 8
-0.0059999996 0.03844007 -0.058575373 11 7 13
-0.008999999 0.03832961 -0.06023225 18 14 20
-0.008999999 0.03832961 -0.062057506 25 19 28
-0.008999999 0.03832961 -0.0638827 25 19 28
-0.008999999 0.03832961 -0.06570796 25 19 28
-0.011999999 0.03821915 -0.06733853 23 17 26
-0.011999999 0.03821915 -0.069158465 22 17 19
-0.011999999 0.03821915 -0.07097847 23 18 20
-0.011999999 0.03821915 -0.0727984 22 20 5
-0.011999999 0.03821915 -0.0746184 19 17 2
-0.011999999 0.03821915 -0.07643833 19 19 19
-0.011999999 0.03821915 -0.07825826 27 27 27
-0.011999999 0.03821915 -0.08007827 37 33 32
-0.015999999 0.038071867 -0.081582606 81 77 76
-0.015999999 0.038071867 -0.08339559 91 86 76
-0.018999998 0.037961412 -0.08496129 100 95 85
-0.018999998 0.037961412 -0.08676894 98 96 79
-0.015999999 0.038071867 -0.08883441 101 99 82
-0.015999999 0.038071867 -0.09064733 100 102 60
-0.015999999 0.038071867 -0.09246032 122 124 82
0.034 0.038012255 0.07032267 73 53 28
0.03 0.03787199 0.06816961 75 61 36
0.027 0.037766792 0.0660919 104 90 65
0.027 0.037766792 0.06420355 93 96 77
0.023 0.037626527 0.062083766 92 95 76
0.02 0.037521325 0.06003411 92 94 75
0.012999999 0.037275854 0.0577776 92 94 75
0.009999999 0.03717066 0.055756 89 84 86
0.009999999 0.03717066 0.053897463 100 95 97
0.0069999998 0.037065458 0.05189164 108 98 90
0.0039999997 0.03696026 0.04989634 96 86 78
-5.707964E-10 0.03681999 0.04786601 91 81 73
-5.4884264E-10 0.03681999 0.046025 74 64 56
-5.2688887E-10 0.03681999 0.044183996 59 56 23
-0.0030000005 0.03671479 0.042222008 60 57 24
-0.0030000005 0.03671479 0.040386256 59 61 29
-0.0060000005 0.036609594 0.038440086 81 83 51
-0.0060000005 0.036609594 0.0366096 83 85 62
-0.009 0.03650439 0.03467917 81 83 60
-0.012 0.036399193 0.032759264 76 76 65
-0.012 0.036399193 0.030939298 76 76 65
-0.012 0.036399193 0.029119367 76 76 58
-0.012 0.036399193 0.0272994 81 81 63
-0.016 0.036258925 0.025381247 84 81 73
