ply
format ascii 1.0
comment This is your Processing ply file
element vertex 990
property float x
property float y
property float z
property uchar red
property uchar green
property uchar blue
end_header
0.022239292 0.079690725 0.007000004 144 153 175
0.024092536 0.079690725 0.0070000044 149 158 180
0.025945852 0.079690725 0.007000005 144 156 172
0.0277991 0.079690725 0.007000005 141 153 169
0.029736575 0.07991691 0.010000004 143 153 168
0.0316845 0.08014309 0.013000006 143 153 168
0.033674505 0.080444664 0.017000007 144 153 166
0.035545353 0.080444664 0.017000007 143 152 165
-0.035545323 0.07857386 0.016999993 156 167 179
-0.033674512 0.07857386 0.016999993 153 165 190
-0.031684466 0.078279294 0.012999995 158 170 195
-0.029820701 0.078279294 0.012999996 158 173 191
-0.027878001 0.07805838 0.009999995 152 167 185
-0.025945822 0.07783745 0.006999995 150 164 177
-0.024024159 0.07761654 0.0039999955 156 170 183
-0.022176137 0.07761654 0.003999996 154 169 191
-0.020386014 0.07783745 0.0069999965 153 168 190
-0.018480133 0.07761654 0.0039999965 149 163 188
-0.016632112 0.07761654 0.003999997 145 159 184
-0.014784094 0.07761654 0.0039999974 152 161 185
-0.012936073 0.07761654 0.003999998 152 161 185
-0.011046007 0.07732198 -1.9313453E-9 150 159 181
-0.009205 0.07732198 -1.6094533E-9 150 159 181
-0.007363993 0.07732198 -1.2875614E-9 150 157 182
-0.005522986 0.07732198 -9.656695E-10 149 156 181
-0.003681979 0.07732198 -6.4377764E-10 142 151 164
-0.001841007 0.07732198 -3.218919E-10 143 152 165
0.0 0.07732198 0.0 142 149 165
0.0018410422 0.07732198 3.2189804E-10 142 149 165
0.003682014 0.07732198 6.437838E-10 142 150 163
0.005522986 0.07732198 9.656695E-10 144 152 165
0.007364028 0.07732198 1.2875676E-9 154 163 180
0.009205 0.07732198 1.6094533E-9 142 151 168
0.011046043 0.07732198 1.9313513E-9 137 149 161
0.012936107 0.07761654 0.0040000025 138 150 162
0.014784092 0.07761654 0.0040000025 144 152 165
0.016632149 0.07761654 0.004000003 147 155 168
0.018480133 0.07761654 0.0040000034 149 151 166
0.02032819 0.07761654 0.0040000034 148 150 165
0.022176174 0.07761654 0.004000004 137 145 165
0.024092536 0.07783745 0.0070000044 138 146 166
0.025872216 0.07761654 0.0040000044 141 151 168
0.0277202 0.07761654 0.004000005 144 154 171
0.029652415 0.07783745 0.0070000053 143 156 165
0.0316845 0.078279294 0.013000006 144 157 166
0.033674505 0.07857386 0.017000007 142 154 168
0.035545353 0.07857386 0.017000007 141 153 167
-0.03762654 0.07713438 0.022999994 116 125 142
-0.035545323 0.07670306 0.016999993 159 168 185
-0.033674512 0.07670306 0.016999993 156 166 190
-0.031803697 0.07670306 0.016999993 156 166 190
-0.029820701 0.0764155 0.012999996 155 167 190
-0.027878001 0.076199844 0.009999995 151 163 186
-0.025945822 0.07598419 0.006999995 151 163 186
-0.024024159 0.07576852 0.0039999955 157 169 192
-0.022176137 0.07576852 0.003999996 156 168 184
-0.020328153 0.07576852 0.0039999965 154 166 182
-0.018480133 0.07576852 0.0039999965 152 162 188
-0.016632112 0.07576852 0.003999997 145 155 181
-0.014784094 0.07576852 0.0039999974 146 156 184
-0.012936073 0.07576852 0.003999998 146 156 184
-0.011046007 0.07548098 -1.9313453E-9 148 159 178
-0.009205 0.07548098 -1.6094533E-9 149 160 179
-0.007363993 0.07548098 -1.2875614E-9 148 157 179
-0.005522986 0.07548098 -9.656695E-10 147 156 178
-0.003681979 0.07548098 -6.4377764E-10 141 151 166
-0.001841007 0.07548098 -3.218919E-10 141 151 166
0.0 0.07548098 0.0 137 144 164
0.0018410422 0.07548098 3.2189804E-10 137 144 164
0.003682014 0.07548098 6.437838E-10 138 146 166
0.005522986 0.07548098 9.656695E-10 142 150 170
0.007364028 0.07548098 1.2875676E-9 140 152 168
0.009205 0.07548098 1.6094533E-9 136 148 164
0.011046043 0.07548098 1.9313513E-9 136 147 166
0.012887014 0.07548098 2.2532372E-9 138 149 168
0.014784092 0.07576852 0.0040000025 141 150 163
0.016632149 0.07576852 0.004000003 142 151 164
0.018480133 0.07576852 0.0040000034 144 152 165
0.02032819 0.07576852 0.0040000034 150 158 171
0.022176174 0.07576852 0.004000004 141 151 170
0.024092536 0.07598419 0.0070000044 136 146 165
0.025872216 0.07576852 0.0040000044 137 147 173
0.0277202 0.07576852 0.004000005 143 153 179
0.029652415 0.07598419 0.0070000053 144 157 157
0.0316845 0.0764155 0.013000006 145 158 158
0.033674505 0.07670306 0.017000007 144 154 171
0.035545353 0.07670306 0.017000007 142 152 169
0.03741613 0.07670306 0.017000007 142 147 159
-0.03950787 0.075253054 0.022999993 122 120 114
-0.03762654 0.075253054 0.022999994 133 142 150
-0.035745203 0.075253054 0.022999994 158 167 175
-0.033674512 0.07483225 0.016999993 152 162 188
-0.031803697 0.07483225 0.016999993 154 164 190
-0.029820701 0.07455171 0.012999996 153 165 188
-0.027878001 0.07434132 0.009999995 151 163 186
-0.025945822 0.074130915 0.006999995 152 162 186
-0.024024159 0.07392052 0.0039999955 153 163 187
-0.022176137 0.07392052 0.003999996 149 159 183
-0.020328153 0.07392052 0.0039999965 149 159 183
-0.018480133 0.07392052 0.0039999965 151 160 182
-0.016632112 0.07392052 0.003999997 147 156 178
-0.014784094 0.07392052 0.0039999974 147 156 182
-0.012936073 0.07392052 0.003999998 148 157 183
-0.011046007 0.07363998 -1.9313453E-9 147 159 175
-0.009205 0.07363998 -1.6094533E-9 148 160 176
-0.007363993 0.07363998 -1.2875614E-9 143 155 176
-0.005522986 0.07363998 -9.656695E-10 141 153 174
-0.003681979 0.07363998 -6.4377764E-10 141 151 166
-0.001841007 0.07363998 -3.218919E-10 138 148 163
0.0 0.07363998 0.0 139 146 166
0.0018410422 0.07363998 3.2189804E-10 139 146 166
0.003682014 0.07363998 6.437838E-10 138 147 164
0.005522986 0.07363998 9.656695E-10 140 149 166
0.007364028 0.07363998 1.2875676E-9 140 150 167
0.009205 0.07363998 1.6094533E-9 133 143 160
0.011046043 0.07363998 1.9313513E-9 131 142 161
0.012887014 0.07363998 2.2532372E-9 132 143 162
0.014784092 0.07392052 0.0040000025 128 141 157
0.016632149 0.07392052 0.004000003 132 145 161
0.018480133 0.07392052 0.0040000034 141 151 166
0.02032819 0.07392052 0.0040000034 143 153 168
0.022176174 0.07392052 0.004000004 143 153 170
0.024092536 0.074130915 0.0070000044 140 150 167
0.025945852 0.074130915 0.007000005 134 145 166
0.0277991 0.074130915 0.007000005 143 154 175
0.029736575 0.07434132 0.010000004 147 160 167
0.0316845 0.07455171 0.013000006 147 160 167
0.033548262 0.07455171 0.013000006 139 151 176
0.0354121 0.07455171 0.013000006 141 153 178
0.037275862 0.07455171 0.013000007 143 145 160
-0.03950787 0.07337172 0.022999993 123 120 121
-0.03762654 0.07337172 0.022999994 144 151 151
-0.035745203 0.07337172 0.022999994 161 168 168
-0.033769187 0.07316658 0.019999994 155 164 188
-0.031803697 0.07296144 0.016999993 156 165 189
-0.029820701 0.072687924 0.012999996 155 167 183
-0.027878001 0.07248278 0.009999995 153 165 181
-0.025945822 0.07227764 0.006999995 153 163 187
-0.02409254 0.07227764 0.0069999956 153 163 187
-0.022176137 0.0720725 0.003999996 149 159 185
-0.020328153 0.0720725 0.0039999965 148 158 184
-0.018480133 0.0720725 0.0039999965 146 158 172
-0.016632112 0.0720725 0.003999997 145 157 171
-0.014784094 0.0720725 0.0039999974 147 156 182
-0.012936073 0.0720725 0.003999998 149 158 184
-0.011046007 0.07179898 -1.9313453E-9 149 159 176
-0.009205 0.07179898 -1.6094533E-9 149 159 176
-0.007363993 0.07179898 -1.2875614E-9 143 156 174
-0.005522986 0.07179898 -9.656695E-10 141 154 172
-0.003681979 0.07179898 -6.4377764E-10 142 152 167
-0.001841007 0.07179898 -3.218919E-10 135 145 160
0.0 0.07179898 0.0 138 145 172
0.0018410422 0.07179898 3.2189804E-10 141 148 175
0.0036714945 0.07159384 -0.0029999993 138 148 165
0.0055072065 0.07159384 -0.002999999 138 148 165
0.0073429886 0.07159384 -0.0029999989 137 149 163
0.009178702 0.07159384 -0.0029999984 133 145 159
0.011046043 0.07179898 1.9313513E-9 132 143 164
0.012887014 0.07179898 2.2532372E-9 133 144 165
0.014727986 0.07179898 2.5751228E-9 132 144 165
0.016632149 0.0720725 0.004000003 131 143 164
0.018480133 0.0720725 0.0040000034 137 149 163
0.02032819 0.0720725 0.0040000034 140 152 166
0.022176174 0.0720725 0.004000004 139 151 165
0.024024159 0.0720725 0.0040000044 141 153 167
0.025945852 0.07227764 0.007000005 135 150 170
0.0277991 0.07227764 0.007000005 136 151 171
0.029736575 0.07248278 0.010000004 146 159 166
0.0316845 0.072687924 0.013000006 148 161 168
0.033548262 0.072687924 0.013000006 141 152 182
0.0354121 0.072687924 0.013000006 142 153 183
0.037275862 0.072687924 0.013000007 144 146 163
-0.03950787 0.0714904 0.022999993 138 135 136
-0.03762654 0.0714904 0.022999994 145 154 171
-0.035745203 0.0714904 0.022999994 157 166 183
-0.033769187 0.07129052 0.019999994 154 163 189
-0.031803697 0.07109064 0.016999993 157 166 192
-0.029820701 0.07082413 0.012999996 155 168 186
-0.027799103 0.07042437 0.006999995 153 166 184
-0.025945822 0.07042437 0.006999995 153 164 192
-0.024024159 0.070224494 0.0039999955 153 164 192
-0.022176137 0.070224494 0.003999996 151 160 184
-0.020328153 0.070224494 0.0039999965 147 156 180
-0.018480133 0.070224494 0.0039999965 145 154 176
-0.016632112 0.070224494 0.003999997 147 156 178
-0.014784094 0.070224494 0.0039999974 146 157 178
-0.012886979 0.06995799 -2.2532312E-9 146 157 178
-0.011046007 0.06995799 -1.9313453E-9 141 154 172
-0.009205 0.06995799 -1.6094533E-9 142 155 173
-0.007363993 0.06995799 -1.2875614E-9 142 155 171
-0.005522986 0.06995799 -9.656695E-10 140 153 169
-0.003681979 0.06995799 -6.4377764E-10 143 153 172
-0.0018357466 0.0697581 -0.0030000003 136 146 165
5.2453664E-10 0.0697581 -0.003 137 146 172
0.0018357825 0.0697581 -0.0029999998 137 146 172
0.0036714945 0.0697581 -0.0029999993 134 146 158
0.0055072065 0.0697581 -0.002999999 135 147 159
0.0073429886 0.0697581 -0.0029999989 136 148 164
0.009178702 0.0697581 -0.0029999984 134 146 162
0.011046043 0.06995799 1.9313513E-9 133 144 165
0.012887014 0.06995799 2.2532372E-9 133 144 165
0.014727986 0.06995799 2.5751228E-9 135 145 164
0.01656903 0.06995799 2.897021E-9 136 146 165
0.018480133 0.070224494 0.0040000034 134 146 160
0.02032819 0.070224494 0.0040000034 139 151 165
0.022176174 0.070224494 0.004000004 134 150 163
0.024024159 0.070224494 0.0040000044 134 150 163
0.025945852 0.07042437 0.007000005 134 151 168
0.0277991 0.07042437 0.007000005 136 153 170
0.029736575 0.070624255 0.010000004 140 154 167
0.0316845 0.07082413 0.013000006 142 156 169
0.033548262 0.07082413 0.013000006 142 154 179
0.0354121 0.07082413 0.013000006 143 155 180
0.03741613 0.07109064 0.017000007 145 147 162
0.03928698 0.07109064 0.017000008 107 109 124
-0.03950787 0.069609076 0.022999993 140 139 144
-0.03762654 0.069609076 0.022999994 148 152 180
-0.035745203 0.069609076 0.022999994 156 160 188
-0.033769187 0.06941445 0.019999994 155 162 187
-0.031803697 0.069219835 0.016999993 157 164 189
-0.029820701 0.06896034 0.012999996 153 166 184
-0.027799103 0.0685711 0.006999995 154 167 185
-0.025945822 0.0685711 0.006999995 152 165 198
-0.024024159 0.06837648 0.0039999955 149 162 195
-0.022176137 0.06837648 0.003999996 149 159 185
-0.020328153 0.06837648 0.0039999965 146 156 182
-0.018480133 0.06837648 0.0039999965 147 156 182
-0.016632112 0.06837648 0.003999997 147 156 182
-0.014784094 0.06837648 0.0039999974 145 156 177
-0.012886979 0.06811699 -2.2532312E-9 147 158 179
-0.011046007 0.06811699 -1.9313453E-9 141 153 174
-0.009205 0.06811699 -1.6094533E-9 140 152 173
-0.007363993 0.06811699 -1.2875614E-9 140 153 169
-0.005522986 0.06811699 -9.656695E-10 139 152 168
-0.003681979 0.06811699 -6.4377764E-10 136 146 172
-0.0018357466 0.06792237 -0.0030000003 134 144 170
5.2453664E-10 0.06792237 -0.003 137 146 172
0.0018357825 0.06792237 -0.0029999998 135 144 170
0.0036714945 0.06792237 -0.0029999993 134 145 146
0.0055072065 0.06792237 -0.002999999 136 147 148
0.0073429886 0.06792237 -0.0029999989 137 146 161
0.009178702 0.06792237 -0.0029999984 134 143 158
0.011014484 0.06792237 -0.0029999982 132 142 166
0.012887014 0.06811699 2.2532372E-9 131 141 165
0.014727986 0.06811699 2.5751228E-9 131 144 162
0.01656903 0.06811699 2.897021E-9 135 148 166
0.018480133 0.06837648 0.0040000034 136 148 162
0.02032819 0.06837648 0.0040000034 144 156 170
0.022176174 0.06837648 0.004000004 139 151 165
0.024024159 0.06837648 0.0040000044 136 148 162
0.025945852 0.0685711 0.007000005 134 151 170
0.0277991 0.0685711 0.007000005 139 156 175
0.029736575 0.06876572 0.010000004 140 153 171
0.0316845 0.06896034 0.013000006 140 153 171
0.033548262 0.06896034 0.013000006 143 154 173
0.0354121 0.06896034 0.013000006 146 157 176
0.03741613 0.069219835 0.017000007 144 149 161
0.03928698 0.069219835 0.017000008 106 111 123
-0.03762654 0.06772775 0.022999994 143 151 171
-0.035745203 0.06772775 0.022999994 151 159 179
-0.033674512 0.06734903 0.016999993 153 163 187
-0.031684466 0.06709655 0.012999995 152 162 186
-0.029736541 0.06690719 0.009999995 141 157 181
-0.027799103 0.066717826 0.006999995 148 164 188
-0.025945822 0.066717826 0.006999995 151 165 190
-0.024024159 0.06652847 0.0039999955 149 163 188
-0.022091977 0.06627599 -3.862684E-9 148 160 185
-0.020251008 0.06627599 -3.5407985E-9 145 157 182
-0.018480133 0.06652847 0.0039999965 148 155 182
-0.016632112 0.06652847 0.003999997 148 155 182
-0.014727986 0.06627599 -2.5751228E-9 140 149 171
-0.012886979 0.06627599 -2.2532312E-9 145 154 176
-0.011046007 0.06627599 -1.9313453E-9 139 154 174
-0.009205 0.06627599 -1.6094533E-9 138 153 173
-0.007363993 0.06627599 -1.2875614E-9 138 154 169
-0.005522986 0.06627599 -9.656695E-10 137 153 168
-0.0036714585 0.066086635 -0.0030000007 132 142 166
-0.0018357466 0.066086635 -0.0030000003 135 145 169
5.2453664E-10 0.066086635 -0.003 136 145 167
0.0018357825 0.066086635 -0.0029999998 130 139 161
0.0036714945 0.066086635 -0.0029999993 129 139 147
0.0055072065 0.066086635 -0.002999999 135 145 153
0.0073429886 0.066086635 -0.0029999989 134 146 162
0.009178702 0.066086635 -0.0029999984 130 142 158
0.011014484 0.066086635 -0.0029999982 126 136 160
0.012887014 0.06627599 2.2532372E-9 129 139 163
0.014727986 0.06627599 2.5751228E-9 127 142 160
0.01656903 0.06627599 2.897021E-9 132 147 165
0.018480133 0.06652847 0.0040000034 135 147 161
0.02032819 0.06652847 0.0040000034 141 153 167
0.022176174 0.06652847 0.004000004 141 151 166
0.024024159 0.06652847 0.0040000044 139 149 164
0.025945852 0.066717826 0.007000005 132 149 168
0.027877998 0.06690719 0.010000004 138 155 174
0.029736575 0.06690719 0.010000004 139 156 173
0.0316845 0.06709655 0.013000006 138 155 172
0.033548262 0.06709655 0.013000006 144 156 172
0.0354121 0.06709655 0.013000006 147 159 175
0.03741613 0.06734903 0.017000007 144 150 157
0.03928698 0.06734903 0.017000008 104 110 117
-0.035545323 0.06547823 0.016999993 150 157 166
-0.033674512 0.06547823 0.016999993 155 162 187
-0.031684466 0.06523276 0.012999995 154 161 186
-0.029736541 0.06504866 0.009999995 151 161 185
-0.027799103 0.06486455 0.006999995 152 162 186
-0.025945822 0.06486455 0.006999995 149 164 182
-0.024024159 0.06468046 0.0039999955 149 164 182
-0.022091977 0.06443499 -3.862684E-9 148 160 181
-0.020251008 0.06443499 -3.5407985E-9 142 154 175
-0.018480133 0.06468046 0.0039999965 144 153 184
-0.016632112 0.06468046 0.003999997 144 153 184
-0.014727986 0.06443499 -2.5751228E-9 143 152 178
-0.012886979 0.06443499 -2.2532312E-9 146 155 181
-0.011046007 0.06443499 -1.9313453E-9 141 154 170
-0.009205 0.06443499 -1.6094533E-9 139 152 168
-0.007363993 0.06443499 -1.2875614E-9 140 154 167
-0.005522986 0.06443499 -9.656695E-10 140 154 167
-0.0036714585 0.064250894 -0.0030000007 137 147 166
-0.0018357466 0.064250894 -0.0030000003 138 148 167
5.2453664E-10 0.064250894 -0.003 135 145 164
0.0018357825 0.064250894 -0.0029999998 129 139 158
0.0036714945 0.064250894 -0.0029999993 128 140 156
0.0055072065 0.064250894 -0.002999999 131 143 159
0.0073429886 0.064250894 -0.0029999989 132 144 158
0.009178702 0.064250894 -0.0029999984 126 138 152
0.011014484 0.064250894 -0.0029999982 126 136 160
0.012850195 0.064250894 -0.002999998 133 143 167
0.014727986 0.06443499 2.5751228E-9 132 144 160
0.01656903 0.06443499 2.897021E-9 135 147 163
0.01841 0.06443499 3.2189067E-9 137 146 159
0.02032819 0.06468046 0.0040000034 138 147 160
0.022176174 0.06468046 0.004000004 137 147 166
0.024024159 0.06468046 0.0040000044 138 148 167
0.025872216 0.06468046 0.0040000044 134 149 169
0.027877998 0.06504866 0.010000004 143 158 178
0.029736575 0.06504866 0.010000004 141 156 174
0.0316845 0.06523276 0.013000006 140 155 173
0.033548262 0.06523276 0.013000006 144 156 172
0.0354121 0.06523276 0.013000006 147 159 175
0.03741613 0.06547823 0.017000007 142 148 153
0.03928698 0.06547823 0.017000008 103 109 114
-0.035545323 0.06360742 0.016999993 154 161 179
-0.033674512 0.06360742 0.016999993 154 161 186
-0.031684466 0.06336897 0.012999995 156 163 188
-0.029736541 0.063190125 0.009999995 151 163 186
-0.027799103 0.06301129 0.006999995 148 160 183
-0.025945822 0.06301129 0.006999995 139 154 181
-0.024024159 0.062832445 0.0039999955 140 155 182
-0.022091977 0.062594 -3.862684E-9 142 156 181
-0.020251008 0.062594 -3.5407985E-9 141 155 180
-0.018480133 0.062832445 0.0039999965 141 151 179
-0.016632112 0.062832445 0.003999997 142 152 180
-0.014727986 0.062594 -2.5751228E-9 142 151 177
-0.012886979 0.062594 -2.2532312E-9 142 151 177
-0.011046007 0.062594 -1.9313453E-9 142 154 170
-0.009205 0.062594 -1.6094533E-9 141 153 169
-0.007363993 0.062594 -1.2875614E-9 134 144 168
-0.005522986 0.062594 -9.656695E-10 135 145 169
-0.0036714585 0.062415153 -0.0030000007 135 144 168
-0.0018357466 0.062415153 -0.0030000003 137 146 170
5.2453664E-10 0.062415153 -0.003 131 144 162
0.0018357825 0.062415153 -0.0029999998 129 142 160
0.0036714945 0.062415153 -0.0029999993 122 134 157
0.0055072065 0.062415153 -0.002999999 128 140 163
0.0073429886 0.062415153 -0.0029999989 132 144 158
0.009178702 0.062415153 -0.0029999984 129 141 155
0.011014484 0.062415153 -0.0029999982 126 133 158
0.012850195 0.062415153 -0.002999998 132 139 164
0.014727986 0.062594 2.5751228E-9 132 140 162
0.01656903 0.062594 2.897021E-9 133 141 163
0.01841 0.062594 3.2189067E-9 137 145 158
0.020251041 0.062594 3.5408045E-9 137 145 158
0.022092015 0.062594 3.8626906E-9 136 146 165
0.024024159 0.062832445 0.0040000044 137 147 166
0.025872216 0.062832445 0.0040000044 130 147 166
0.027877998 0.063190125 0.010000004 139 156 175
0.029736575 0.063190125 0.010000004 137 153 168
0.0316845 0.06336897 0.013000006 137 153 168
0.033548262 0.06336897 0.013000006 139 151 167
0.0354121 0.06336897 0.013000006 145 157 173
0.03741613 0.06360742 0.017000007 139 148 152
0.03928698 0.06360742 0.017000008 100 109 113
-0.037416138 0.061736587 0.016999993 156 163 179
-0.035545323 0.061736587 0.016999993 151 158 174
-0.033674512 0.061736587 0.016999993 152 162 181
-0.031684466 0.06150515 0.012999995 157 167 186
-0.029736541 0.06133157 0.009999995 150 160 184
-0.027799103 0.06115799 0.006999995 147 157 181
-0.025945822 0.06115799 0.006999995 142 156 183
-0.024024159 0.06098441 0.0039999955 142 156 183
-0.022091977 0.06075297 -3.862684E-9 143 157 182
-0.020251008 0.06075297 -3.5407985E-9 144 158 183
-0.018480133 0.06098441 0.0039999965 141 151 177
-0.016632112 0.06098441 0.003999997 139 149 175
-0.014727986 0.06075297 -2.5751228E-9 141 150 176
-0.012886979 0.06075297 -2.2532312E-9 141 150 176
-0.011046007 0.06075297 -1.9313453E-9 141 153 169
-0.009205 0.06075297 -1.6094533E-9 141 153 169
-0.007363993 0.06075297 -1.2875614E-9 134 143 174
-0.005522986 0.06075297 -9.656695E-10 133 142 173
-0.0036714585 0.06057939 -0.0030000007 134 143 167
-0.0018357466 0.06057939 -0.0030000003 136 145 169
5.2453664E-10 0.06057939 -0.003 132 143 162
0.0018357825 0.06057939 -0.0029999998 133 144 163
0.0036714945 0.06057939 -0.0029999993 128 135 160
0.0055072065 0.06057939 -0.002999999 128 135 160
0.0073429886 0.06057939 -0.0029999989 137 142 154
0.009178702 0.06057939 -0.0029999984 138 143 155
0.011014484 0.06057939 -0.0029999982 130 138 158
0.012850195 0.06057939 -0.002999998 133 141 161
0.014685907 0.06057939 -0.0029999975 132 139 164
0.01656903 0.06075297 2.897021E-9 131 138 163
0.01841 0.06075297 3.2189067E-9 137 144 160
0.020251041 0.06075297 3.5408045E-9 137 144 160
0.022092015 0.06075297 3.8626906E-9 134 145 164
0.024024159 0.06098441 0.0040000044 141 152 171
0.025872216 0.06098441 0.0040000044 135 151 164
0.0277991 0.06115799 0.007000005 143 159 172
0.029736575 0.06133157 0.010000004 140 154 167
0.03159508 0.06133157 0.010000005 140 154 167
0.033548262 0.06150515 0.013000006 142 154 170
0.0354121 0.06150515 0.013000006 146 158 174
0.03741613 0.061736587 0.017000007 146 153 155
0.03928698 0.061736587 0.017000008 101 108 110
-0.037416138 0.059865784 0.016999993 149 157 179
-0.035545323 0.059865784 0.016999993 149 157 179
-0.03354827 0.059641358 0.012999995 146 156 182
-0.031684466 0.059641358 0.012999995 152 162 188
-0.029736541 0.059473038 0.009999995 144 159 181
-0.027799103 0.059304718 0.006999995 145 160 182
-0.025945822 0.059304718 0.006999995 146 156 182
-0.024024159 0.059136398 0.0039999955 145 155 181
-0.022091977 0.05891197 -3.862684E-9 142 154 175
-0.020251008 0.05891197 -3.5407985E-9 144 156 177
-0.018480133 0.059136398 0.0039999965 141 151 177
-0.016632112 0.059136398 0.003999997 140 150 176
-0.014727986 0.05891197 -2.5751228E-9 141 149 180
-0.012886979 0.05891197 -2.2532312E-9 141 149 180
-0.011046007 0.05891197 -1.9313453E-9 139 150 169
-0.009205 0.05891197 -1.6094533E-9 139 150 169
-0.007363993 0.05891197 -1.2875614E-9 133 141 172
-0.005522986 0.05891197 -9.656695E-10 133 141 172
-0.0036714585 0.05874365 -0.0030000007 134 141 166
-0.0018357466 0.05874365 -0.0030000003 132 139 164
5.2453664E-10 0.05874365 -0.003 128 135 160
0.0018357825 0.05874365 -0.0029999998 133 140 165
0.0036714945 0.05874365 -0.0029999993 132 133 167
0.0055072065 0.05874365 -0.002999999 132 133 167
0.0073429886 0.05874365 -0.0029999989 133 134 154
0.009178702 0.05874365 -0.0029999984 133 134 154
0.011014484 0.05874365 -0.0029999982 129 136 156
0.012850195 0.05874365 -0.002999998 133 140 160
0.014685907 0.05874365 -0.0029999975 131 138 158
0.01656903 0.05891197 2.897021E-9 136 143 163
0.01841 0.05891197 3.2189067E-9 138 146 159
0.020251041 0.05891197 3.5408045E-9 137 145 158
0.022092015 0.05891197 3.8626906E-9 132 145 161
0.024024159 0.059136398 0.0040000044 136 149 165
0.025872216 0.059136398 0.0040000044 129 147 159
0.0277991 0.059304718 0.007000005 137 155 167
0.029736575 0.059473038 0.010000004 140 152 166
0.03159508 0.059473038 0.010000005 142 154 168
0.033548262 0.059641358 0.013000006 142 152 169
0.0354121 0.059641358 0.013000006 145 155 172
0.03741613 0.059865784 0.017000007 148 155 164
0.03928698 0.059865784 0.017000008 103 110 119
-0.039139673 0.057777565 0.012999994 153 162 159
-0.037275873 0.057777565 0.012999994 151 160 182
-0.03541207 0.057777565 0.012999995 155 164 186
-0.03354827 0.057777565 0.012999995 154 166 182
-0.031684466 0.057777565 0.012999995 155 167 183
-0.029736541 0.057614505 0.009999995 150 161 180
-0.027799103 0.057451446 0.006999995 150 161 180
-0.025945822 0.057451446 0.006999995 144 156 181
-0.024024159 0.057288382 0.0039999955 143 155 180
-0.022091977 0.057070974 -3.862684E-9 143 155 176
-0.020251008 0.057070974 -3.5407985E-9 143 155 176
-0.018480133 0.057288382 0.0039999965 139 149 175
-0.016632112 0.057288382 0.003999997 140 150 176
-0.014727986 0.057070974 -2.5751228E-9 142 149 184
-0.012886979 0.057070974 -2.2532312E-9 140 147 182
-0.011046007 0.057070974 -1.9313453E-9 140 149 171
-0.009205 0.057070974 -1.6094533E-9 139 148 170
-0.007363993 0.057070974 -1.2875614E-9 134 142 173
-0.005522986 0.057070974 -9.656695E-10 134 142 173
-0.0036714585 0.056907915 -0.0030000007 135 142 167
-0.0018357466 0.056907915 -0.0030000003 130 137 162
5.2453664E-10 0.056907915 -0.003 130 136 168
0.0018357825 0.056907915 -0.0029999998 139 145 177
0.0036714945 0.056907915 -0.0029999993 132 136 174
0.0055072065 0.056907915 -0.002999999 130 134 172
0.0073429886 0.056907915 -0.0029999989 131 134 158
0.009178702 0.056907915 -0.0029999984 129 132 156
0.011014484 0.056907915 -0.0029999982 128 137 154
0.012887014 0.057070974 2.2532372E-9 135 144 161
0.014727986 0.057070974 2.5751228E-9 135 143 154
0.01656903 0.057070974 2.897021E-9 139 147 158
0.01841 0.057070974 3.2189067E-9 137 145 156
0.020251041 0.057070974 3.5408045E-9 136 144 155
0.022092015 0.057070974 3.8626906E-9 132 145 161
0.023932986 0.057070974 4.1845762E-9 138 151 167
0.025872216 0.057288382 0.0040000044 135 152 160
0.0277991 0.057451446 0.007000005 138 155 163
0.029736575 0.057614505 0.010000004 140 151 163
0.03159508 0.057614505 0.010000005 140 151 163
0.033548262 0.057777565 0.013000006 142 152 167
0.0354121 0.057777565 0.013000006 142 152 167
0.03741613 0.05799498 0.017000007 147 152 166
0.03928698 0.05799498 0.017000008 107 112 126
0.041157756 0.05799498 0.017000008 79 77 78
-0.039139673 0.055913772 0.012999994 154 161 161
-0.037275873 0.055913772 0.012999994 148 160 183
-0.03541207 0.055913772 0.012999995 150 162 185
-0.03354827 0.055913772 0.012999995 148 160 183
-0.031684466 0.055913772 0.012999995 150 162 185
-0.029736541 0.055755973 0.009999995 150 159 181
-0.027878001 0.055755973 0.009999995 148 157 179
-0.025945822 0.055598173 0.006999995 143 154 182
-0.02409254 0.055598173 0.0069999956 143 154 182
-0.022091977 0.055229973 -3.862684E-9 144 156 181
-0.020251008 0.055229973 -3.5407985E-9 142 154 179
-0.018480133 0.055440374 0.0039999965 137 149 165
-0.016632112 0.055440374 0.003999997 138 150 166
-0.014784094 0.055440374 0.0039999974 140 148 177
-0.012886979 0.055229973 -2.2532312E-9 139 147 176
-0.011046007 0.055229973 -1.9313453E-9 137 148 169
-0.009205 0.055229973 -1.6094533E-9 137 148 169
-0.007363993 0.055229973 -1.2875614E-9 135 145 171
-0.005522986 0.055229973 -9.656695E-10 133 143 169
-0.0036714585 0.055072173 -0.0030000007 135 142 167
-0.0018357466 0.055072173 -0.0030000003 130 137 162
5.2453664E-10 0.055072173 -0.003 129 136 161
0.0018357825 0.055072173 -0.0029999998 133 140 165
0.0036714945 0.055072173 -0.0029999993 129 136 161
0.0055072065 0.055072173 -0.002999999 128 135 160
0.0073429886 0.055072173 -0.0029999989 131 138 158
0.009178702 0.055072173 -0.0029999984 129 136 156
0.011014484 0.055072173 -0.0029999982 128 137 154
0.012887014 0.055229973 2.2532372E-9 130 139 156
0.014727986 0.055229973 2.5751228E-9 128 137 152
0.01656903 0.055229973 2.897021E-9 130 139 154
0.01841 0.055229973 3.2189067E-9 125 134 151
0.020251041 0.055229973 3.5408045E-9 132 141 158
0.022092015 0.055229973 3.8626906E-9 128 144 159
0.023932986 0.055229973 4.1845762E-9 128 144 159
0.025872216 0.055440374 0.0040000044 132 149 159
0.0277991 0.055598173 0.007000005 134 151 161
0.029736575 0.055755973 0.010000004 140 150 165
0.03159508 0.055755973 0.010000005 142 152 167
0.033548262 0.055913772 0.013000006 142 152 169
0.0354121 0.055913772 0.013000006 144 154 171
0.03741613 0.056124173 0.017000007 143 147 164
0.03928698 0.056124173 0.017000008 103 107 124
0.041157756 0.056124173 0.017000008 82 80 81
-0.041003436 0.05404998 0.012999993 109 118 117
-0.039139673 0.05404998 0.012999994 160 169 168
-0.037275873 0.05404998 0.012999994 156 168 182
-0.03541207 0.05404998 0.012999995 151 163 177
-0.03354827 0.05404998 0.012999995 149 160 181
-0.031684466 0.05404998 0.012999995 149 160 181
-0.029736541 0.05389744 0.009999995 147 157 185
-0.027878001 0.05389744 0.009999995 146 156 184
-0.025945822 0.053744905 0.006999995 143 154 182
-0.02409254 0.053744905 0.0069999956 138 149 177
-0.022091977 0.053388976 -3.862684E-9 141 155 182
-0.020251008 0.053388976 -3.5407985E-9 139 153 180
-0.018480133 0.05359236 0.0039999965 134 148 159
-0.016632112 0.05359236 0.003999997 137 151 162
-0.014784094 0.05359236 0.0039999974 141 149 169
-0.012886979 0.053388976 -2.2532312E-9 141 149 169
-0.011046007 0.053388976 -1.9313453E-9 140 150 169
-0.009205 0.053388976 -1.6094533E-9 137 147 166
-0.007363993 0.053388976 -1.2875614E-9 134 142 171
-0.005522986 0.053388976 -9.656695E-10 133 141 170
-0.0036714585 0.053236436 -0.0030000007 133 141 163
-0.0018357466 0.053236436 -0.0030000003 129 137 159
1.0490733E-9 0.053083897 -0.006 129 137 159
0.001830523 0.053083897 -0.0059999996 131 139 161
0.0036714945 0.053236436 -0.0029999993 128 136 149
0.0055072065 0.053236436 -0.002999999 129 137 150
0.0073429886 0.053236436 -0.0029999989 130 137 155
0.009178702 0.053236436 -0.0029999984 130 137 155
0.011014484 0.053236436 -0.0029999982 126 137 156
0.012887014 0.053388976 2.2532372E-9 128 139 158
0.014727986 0.053388976 2.5751228E-9 129 141 153
0.01656903 0.053388976 2.897021E-9 133 145 157
0.01841 0.053388976 3.2189067E-9 128 139 158
0.020251041 0.053388976 3.5408045E-9 130 141 160
0.022092015 0.053388976 3.8626906E-9 128 139 160
0.024024159 0.05359236 0.0040000044 127 138 159
0.025872216 0.05359236 0.0040000044 134 148 159
0.0277991 0.053744905 0.007000005 135 149 160
0.029736575 0.05389744 0.010000004 140 151 163
0.03159508 0.05389744 0.010000005 142 153 165
0.033548262 0.05404998 0.013000006 143 153 170
0.0354121 0.05404998 0.013000006 147 157 174
0.03741613 0.05425337 0.017000007 144 148 165
0.03928698 0.05425337 0.017000008 102 106 123
0.041157756 0.05425337 0.017000008 84 82 83
-0.041003436 0.05218619 0.012999993 114 120 134
-0.039139673 0.05218619 0.012999994 153 159 173
-0.037275873 0.05218619 0.012999994 143 157 182
-0.03541207 0.05218619 0.012999995 146 160 185
-0.03354827 0.05218619 0.012999995 147 162 182
-0.031595048 0.05203891 0.009999994 146 161 181
-0.029736541 0.05203891 0.009999995 147 157 185
-0.027799103 0.051891632 0.006999995 147 157 185
-0.025945822 0.051891632 0.006999995 143 154 182
-0.024024159 0.05174435 0.0039999955 142 153 181
-0.022091977 0.051547978 -3.862684E-9 138 152 177
-0.020251008 0.051547978 -3.5407985E-9 133 147 172
-0.018480133 0.05174435 0.0039999965 134 147 163
-0.016632112 0.05174435 0.003999997 137 150 166
-0.014784094 0.05174435 0.0039999974 140 148 168
-0.012886979 0.051547978 -2.2532312E-9 141 149 169
-0.011046007 0.051547978 -1.9313453E-9 140 148 170
-0.009205 0.051547978 -1.6094533E-9 138 146 168
-0.007363993 0.051547978 -1.2875614E-9 131 141 165
-0.005522986 0.051547978 -9.656695E-10 128 138 162
-0.0036714585 0.051400695 -0.0030000007 130 137 162
-0.0018357466 0.051400695 -0.0030000003 130 137 162
1.0490733E-9 0.05125342 -0.006 130 138 158
0.001830523 0.05125342 -0.0059999996 129 137 157
0.0036714945 0.051400695 -0.0029999993 129 138 153
0.0055072065 0.051400695 -0.002999999 128 137 152
0.0073429886 0.051400695 -0.0029999989 128 136 158
0.009178702 0.051400695 -0.0029999984 128 136 158
0.011014484 0.051400695 -0.0029999982 126 139 157
0.012850195 0.051400695 -0.002999998 126 139 157
0.014727986 0.051547978 2.5751228E-9 126 139 155
0.01656903 0.051547978 2.897021E-9 128 141 157
0.01841 0.051547978 3.2189067E-9 129 141 157
0.020251041 0.051547978 3.5408045E-9 130 142 158
0.022176174 0.05174435 0.004000004 129 140 159
0.024024159 0.05174435 0.0040000044 134 145 164
0.025872216 0.05174435 0.0040000044 136 149 158
0.0277991 0.051891632 0.007000005 137 150 159
0.029652415 0.051891632 0.0070000053 139 149 164
0.03159508 0.05203891 0.010000005 139 149 164
0.033548262 0.05218619 0.013000006 138 148 165
0.0354121 0.05218619 0.013000006 140 150 167
0.03741613 0.052382566 0.017000007 145 149 166
0.03928698 0.052382566 0.017000008 101 105 122
0.041157756 0.052382566 0.017000008 85 83 84
-0.04302854 0.050511755 0.016999992 120 113 102
-0.04115773 0.050511755 0.016999992 120 126 161
-0.03928695 0.050511755 0.016999992 154 160 195
-0.037416138 0.050511755 0.016999993 152 162 186
-0.03541207 0.0503224 0.012999995 150 160 184
-0.03354827 0.0503224 0.012999995 149 160 179
-0.031595048 0.05018038 0.009999994 149 160 179
-0.029652381 0.05003836 0.0069999946 153 160 187
-0.027799103 0.05003836 0.006999995 156 163 190
-0.025872178 0.04989634 0.0039999955 145 154 180
-0.024024159 0.04989634 0.0039999955 144 153 179
-0.022091977 0.049706977 -3.862684E-9 143 153 172
-0.020251008 0.049706977 -3.5407985E-9 137 147 166
-0.018480133 0.04989634 0.0039999965 139 147 167
-0.016632112 0.04989634 0.003999997 140 148 168
-0.014727986 0.049706977 -2.5751228E-9 140 147 167
-0.012886979 0.049706977 -2.2532312E-9 139 146 166
-0.011046007 0.049706977 -1.9313453E-9 138 144 167
-0.009205 0.049706977 -1.6094533E-9 134 140 163
-0.007342953 0.04956496 -0.0030000012 133 141 163
-0.0055072056 0.04956496 -0.003000001 130 138 160
-0.0036714585 0.04956496 -0.0030000007 128 138 162
-0.0018304859 0.04942294 -0.0060000005 131 141 165
1.0490733E-9 0.04942294 -0.006 127 139 155
0.001830523 0.04942294 -0.0059999996 127 139 155
0.003660975 0.04942294 -0.0059999996 127 135 157
0.0055072065 0.04956496 -0.002999999 127 135 157
0.0073429886 0.04956496 -0.0029999989 127 133 158
0.009178702 0.04956496 -0.0029999984 127 133 158
0.011014484 0.04956496 -0.0029999982 128 136 158
0.012850195 0.04956496 -0.002999998 127 135 157
0.014727986 0.049706977 2.5751228E-9 125 137 153
0.01656903 0.049706977 2.897021E-9 127 139 155
0.01841 0.049706977 3.2189067E-9 130 138 158
0.020251041 0.049706977 3.5408045E-9 132 140 160
0.022176174 0.04989634 0.004000004 129 140 159
0.024024159 0.04989634 0.0040000044 136 147 166
0.025872216 0.04989634 0.0040000044 135 149 158
0.0277991 0.05003836 0.007000005 138 152 161
0.029652415 0.05003836 0.0070000053 140 149 164
0.03159508 0.05018038 0.010000005 140 149 164
0.033548262 0.0503224 0.013000006 140 149 164
0.0354121 0.0503224 0.013000006 141 150 165
0.03741613 0.050511755 0.017000007 146 147 167
0.03928698 0.050511755 0.017000008 101 102 122
0.041157756 0.050511755 0.017000008 82 82 73
0.043028533 0.050511755 0.017000008 77 77 68
-0.04302854 0.04864095 0.016999992 126 126 108
-0.04115773 0.04864095 0.016999992 130 143 159
-0.039139673 0.048458606 0.012999994 151 164 180
-0.037275873 0.048458606 0.012999994 154 164 183
-0.03541207 0.048458606 0.012999995 152 162 181
-0.03354827 0.048458606 0.012999995 150 160 179
-0.031595048 0.048321847 0.009999994 148 158 177
-0.029652381 0.048185088 0.0069999946 150 154 182
-0.027799103 0.048185088 0.006999995 151 155 183
-0.025872178 0.04804833 0.0039999955 146 152 175
-0.024024159 0.04804833 0.0039999955 145 151 174
-0.022091977 0.047865983 -3.862684E-9 147 154 174
-0.020251008 0.047865983 -3.5407985E-9 144 151 171
-0.018480133 0.04804833 0.0039999965 144 148 167
-0.016568992 0.047865983 -2.8970146E-9 142 146 165
-0.014727986 0.047865983 -2.5751228E-9 131 137 160
-0.012886979 0.047865983 -2.2532312E-9 135 141 164
-0.011014447 0.04772922 -0.003000002 134 139 171
-0.0091787 0.04772922 -0.0030000017 134 139 171
-0.007342953 0.04772922 -0.0030000012 132 140 160
-0.0055072056 0.04772922 -0.003000001 128 136 156
-0.003660938 0.04759246 -0.0060000005 126 133 158
-0.0018304859 0.04759246 -0.0060000005 130 137 162
1.0490733E-9 0.04759246 -0.006 128 140 154
0.001830523 0.04759246 -0.0059999996 127 139 153
0.003660975 0.04759246 -0.0059999996 123 131 153
0.005491427 0.04759246 -0.005999999 126 134 156
0.007321949 0.04759246 -0.0059999987 131 134 156
0.009152401 0.04759246 -0.0059999987 133 136 158
0.011014484 0.04772922 -0.0029999982 129 135 158
0.012850195 0.04772922 -0.002999998 129 135 158
0.014727986 0.047865983 2.5751228E-9 129 138 155
0.01656903 0.047865983 2.897021E-9 129 138 155
0.01841 0.047865983 3.2189067E-9 129 136 156
0.020251041 0.047865983 3.5408045E-9 130 137 157
0.022176174 0.04804833 0.004000004 124 135 156
0.024024159 0.04804833 0.0040000044 135 146 167
0.025872216 0.04804833 0.0040000044 134 149 155
0.0277991 0.048185088 0.007000005 138 153 159
0.029652415 0.048185088 0.0070000053 143 151 162
0.03159508 0.048321847 0.010000005 144 152 163
0.033548262 0.048458606 0.013000006 142 149 165
0.0354121 0.048458606 0.013000006 143 150 166
0.03741613 0.04864095 0.017000007 146 148 165
0.03928698 0.04864095 0.017000008 105 107 124
0.041157756 0.04864095 0.017000008 81 80 76
0.043028533 0.04864095 0.017000008 78 77 73
0.04489938 0.04864095 0.017000008 83 78 64
-0.044731036 0.046594813 0.012999993 72 72 54
-0.042867236 0.046594813 0.012999993 129 129 111
-0.041003436 0.046594813 0.012999993 138 148 156
-0.039139673 0.046594813 0.012999994 153 163 171
-0.037275873 0.046594813 0.012999994 154 166 178
-0.03541207 0.046594813 0.012999995 155 167 179
-0.033453587 0.046463314 0.009999994 144 157 175
-0.031595048 0.046463314 0.009999994 144 157 175
-0.029652381 0.046331815 0.0069999946 146 155 181
-0.027799103 0.046331815 0.006999995 145 154 180
-0.025872178 0.046200316 0.0039999955 143 152 178
-0.024024159 0.046200316 0.0039999955 142 151 177
-0.022091977 0.046024982 -3.862684E-9 142 152 171
-0.020251008 0.046024982 -3.5407985E-9 139 149 168
-0.018480133 0.046200316 0.0039999965 139 148 165
-0.016568992 0.046024982 -2.8970146E-9 139 148 165
-0.014727986 0.046024982 -2.5751228E-9 133 140 169
-0.012886979 0.046024982 -2.2532312E-9 134 141 170
-0.011014447 0.045893483 -0.003000002 135 141 176
-0.0091787 0.045893483 -0.0030000017 132 138 173
-0.007342953 0.045893483 -0.0030000012 131 140 155
-0.005491425 0.04576198 -0.006000001 129 138 153
-0.003660938 0.04576198 -0.0060000005 129 138 155
-0.0018304859 0.04576198 -0.0060000005 129 138 155
1.0490733E-9 0.04576198 -0.006 130 139 154
0.001830523 0.04576198 -0.0059999996 133 142 157
0.003660975 0.04576198 -0.0059999996 126 134 156
0.005491427 0.04576198 -0.005999999 125 133 155
0.007321949 0.04576198 -0.0059999987 130 134 153
0.009152401 0.04576198 -0.0059999987 131 135 154
0.011014484 0.045893483 -0.0029999982 128 136 158
0.012850195 0.045893483 -0.002999998 127 135 157
0.014727986 0.046024982 2.5751228E-9 128 136 158
0.01656903 0.046024982 2.897021E-9 129 137 159
0.01841 0.046024982 3.2189067E-9 130 136 161
0.020251041 0.046024982 3.5408045E-9 132 138 163
0.022176174 0.046200316 0.004000004 127 138 159
0.024024159 0.046200316 0.0040000044 135 146 167
0.025872216 0.046200316 0.0040000044 135 149 149
0.0277991 0.046331815 0.007000005 139 153 153
0.029652415 0.046331815 0.0070000053 142 151 159
0.03159508 0.046463314 0.010000005 145 154 162
0.033548262 0.046594813 0.013000006 141 148 164
0.0354121 0.046594813 0.013000006 142 149 165
0.03741613 0.046770148 0.017000007 146 148 165
0.03928698 0.046770148 0.017000008 109 111 128
0.041157756 0.046770148 0.017000008 83 81 84
0.043028533 0.046770148 0.017000008 77 75 78
-0.044731036 0.044731025 0.012999993 69 71 57
-0.042867236 0.044731025 0.012999993 130 132 118
-0.041003436 0.044731025 0.012999993 137 149 163
-0.039139673 0.044731025 0.012999994 150 162 176
-0.037275873 0.044731025 0.012999994 151 167 182
-0.03541207 0.044731025 0.012999995 148 164 179
-0.033453587 0.044604786 0.009999994 140 154 179
-0.031595048 0.044604786 0.009999994 143 157 182
-0.029652381 0.044478543 0.0069999946 146 156 182
-0.0277202 0.044352304 0.003999995 144 154 180
-0.025872178 0.044352304 0.0039999955 142 152 178
-0.024024159 0.044352304 0.0039999955 139 149 175
-0.022091977 0.044183984 -3.862684E-9 137 148 178
-0.020251008 0.044183984 -3.5407985E-9 133 144 174
-0.018480133 0.044352304 0.0039999965 132 147 169
-0.016568992 0.044183984 -2.8970146E-9 133 148 170
-0.014727986 0.044183984 -2.5751228E-9 137 146 168
-0.012886979 0.044183984 -2.2532312E-9 136 145 167
-0.011014447 0.04405774 -0.003000002 132 140 169
-0.0091787 0.04405774 -0.0030000017 131 139 168
-0.007342953 0.04405774 -0.0030000012 129 138 153
-0.005491425 0.043931503 -0.006000001 129 138 153
-0.003660938 0.043931503 -0.0060000005 129 138 153
-0.0018304859 0.043931503 -0.0060000005 126 135 150
1.0490733E-9 0.043931503 -0.006 127 134 152
0.001830523 0.043931503 -0.0059999996 127 134 152
0.003660975 0.043931503 -0.0059999996 126 132 155
0.005491427 0.043931503 -0.005999999 125 131 154
0.007321949 0.043931503 -0.0059999987 125 129 146
0.009152401 0.043931503 -0.0059999987 129 133 150
0.011014484 0.04405774 -0.0029999982 121 130 161
0.012850195 0.04405774 -0.002999998 124 133 164
0.014727986 0.044183984 2.5751228E-9 125 136 155
0.01656903 0.044183984 2.897021E-9 126 137 156
0.01841 0.044183984 3.2189067E-9 129 135 158
0.020251041 0.044183984 3.5408045E-9 133 139 162
0.022176174 0.044352304 0.004000004 130 138 160
0.024024159 0.044352304 0.0040000044 131 139 161
0.025872216 0.044352304 0.0040000044 133 142 155
0.0277991 0.044478543 0.007000005 138 147 160
0.029652415 0.044478543 0.0070000053 137 145 158
0.03159508 0.044604786 0.010000005 141 149 162
0.033548262 0.044731025 0.013000006 136 146 165
0.0354121 0.044731025 0.013000006 139 149 168
0.037275862 0.044731025 0.013000007 145 149 166
0.0391397 0.044731025 0.013000007 108 112 129
0.041157756 0.044899344 0.017000008 91 89 90
0.043028533 0.044899344 0.017000008 76 74 75
-0.042867236 0.042867232 0.012999993 132 135 127
-0.041003436 0.042867232 0.012999993 143 152 165
-0.039139673 0.042867232 0.012999994 149 158 171
-0.037275873 0.042867232 0.012999994 150 163 179
-0.035312127 0.042746253 0.009999994 149 162 178
-0.033453587 0.042746253 0.009999994 149 159 183
-0.031595048 0.042746253 0.009999994 149 159 183
-0.029652381 0.04262527 0.0069999946 143 154 182
-0.0277202 0.042504292 0.003999995 143 154 182
-0.025872178 0.042504292 0.0039999955 140 152 177
-0.024024159 0.042504292 0.0039999955 136 148 173
-0.022091977 0.042342987 -3.862684E-9 137 147 185
-0.020251008 0.042342987 -3.5407985E-9 135 145 183
-0.01841 0.042342987 -3.2189067E-9 137 147 173
-0.016568992 0.042342987 -2.8970146E-9 141 151 177
-0.014727986 0.042342987 -2.5751228E-9 137 146 163
-0.012886979 0.042342987 -2.2532312E-9 136 145 162
-0.011014447 0.042222008 -0.003000002 134 143 158
-0.0091787 0.042222008 -0.0030000017 130 139 154
-0.007342953 0.042222008 -0.0030000012 129 138 153
-0.005491425 0.042101026 -0.006000001 128 137 152
-0.003660938 0.042101026 -0.0060000005 127 137 145
-0.0018304859 0.042101026 -0.0060000005 126 136 144
1.0490733E-9 0.042101026 -0.006 124 132 154
0.001830523 0.042101026 -0.0059999996 123 131 153
0.003660975 0.042101026 -0.0059999996 125 132 150
0.005491427 0.042101026 -0.005999999 123 130 148
0.007321949 0.042101026 -0.0059999987 124 129 139
0.009152401 0.042101026 -0.0059999987 132 137 147
0.011014484 0.042222008 -0.0029999982 125 130 168
0.012850195 0.042222008 -0.002999998 126 131 169
0.014685907 0.042222008 -0.0029999975 124 136 150
0.01656903 0.042342987 2.897021E-9 130 142 156
0.01841 0.042342987 3.2189067E-9 133 141 154
0.020251041 0.042342987 3.5408045E-9 139 147 160
0.022176174 0.042504292 0.004000004 129 139 163
0.024024159 0.042504292 0.0040000044 127 137 161
0.025872216 0.042504292 0.0040000044 134 144 172
0.0277202 0.042504292 0.004000005 137 147 175
0.029568257 0.042504292 0.0040000053 139 148 163
0.03150566 0.04262527 0.007000006 140 149 164
0.033453587 0.042746253 0.010000005 136 145 167
0.03531216 0.042746253 0.010000005 137 146 168
0.037275862 0.042867232 0.013000007 144 148 165
0.0391397 0.042867232 0.013000007 108 112 129
0.041003462 0.042867232 0.013000008 91 89 90
-0.04302854 0.041157734 0.016999992 143 141 135
-0.041003436 0.04100344 0.012999993 145 154 171
-0.039139673 0.04100344 0.012999994 148 157 174
-0.037275873 0.04100344 0.012999994 143 156 174
-0.035312127 0.04088772 0.009999994 146 159 177
-0.033453587 0.04088772 0.009999994 151 161 189
-0.031505626 0.040772 0.006999994 150 160 188
-0.02956822 0.04065628 0.0039999946 139 153 178
-0.0277202 0.04065628 0.003999995 137 151 176
-0.025872178 0.04065628 0.0039999955 137 149 174
-0.023932986 0.040501986 -4.1845762E-9 136 148 173
-0.022091977 0.040501986 -3.862684E-9 138 147 181
-0.020251008 0.040501986 -3.5407985E-9 135 144 178
-0.01841 0.040501986 -3.2189067E-9 136 145 162
-0.016568992 0.040501986 -2.8970146E-9 134 143 160
-0.014727986 0.040501986 -2.5751228E-9 130 139 154
-0.012850158 0.040386267 -0.0030000021 134 143 158
-0.011014447 0.040386267 -0.003000002 136 145 162
-0.0091787 0.040386267 -0.0030000017 131 140 157
-0.0073219123 0.040270545 -0.0060000014 128 137 154
-0.005491425 0.040270545 -0.006000001 127 136 153
-0.003660938 0.040270545 -0.0060000005 128 135 151
-0.0018304859 0.040270545 -0.0060000005 127 134 150
1.0490733E-9 0.040270545 -0.006 124 132 152
0.001830523 0.040270545 -0.0059999996 126 134 154
0.003660975 0.040270545 -0.0059999996 127 134 152
0.005491427 0.040270545 -0.005999999 125 132 150
0.007321949 0.040270545 -0.0059999987 126 131 145
0.009152401 0.040270545 -0.0059999987 129 134 148
0.011014484 0.040386267 -0.0029999982 123 128 156
0.012850195 0.040386267 -0.002999998 129 134 162
0.014685907 0.040386267 -0.0029999975 126 138 154
0.01656903 0.040501986 2.897021E-9 127 139 155
0.01841 0.040501986 3.2189067E-9 126 138 154
0.020251041 0.040501986 3.5408045E-9 133 145 161
0.022092015 0.040501986 3.8626906E-9 124 136 159
0.024024159 0.04065628 0.0040000044 127 139 162
0.025872216 0.04065628 0.0040000044 135 146 165
0.0277202 0.04065628 0.004000005 136 147 166
0.029568257 0.04065628 0.0040000053 135 146 165
0.03150566 0.040772 0.007000006 136 147 166
0.033358905 0.040772 0.007000006 136 146 174
0.03531216 0.04088772 0.010000005 138 148 176
0.037275862 0.04100344 0.013000007 144 148 167
0.03928698 0.041157734 0.017000008 108 112 131
0.041157756 0.041157734 0.017000008 92 90 93
-0.04302854 0.03928693 0.016999992 148 148 150
-0.041003436 0.039139647 0.012999993 151 159 172
-0.039139673 0.039139647 0.012999994 150 158 171
-0.037275873 0.039139647 0.012999994 144 157 173
-0.035312127 0.03902919 0.009999994 145 158 174
-0.033453587 0.03902919 0.009999994 152 161 197
-0.031505626 0.038918726 0.006999994 150 159 195
-0.02956822 0.03880827 0.0039999946 138 149 177
-0.0277202 0.03880827 0.003999995 137 148 176
-0.025872178 0.03880827 0.0039999955 137 147 175
-0.023932986 0.03866099 -4.1845762E-9 137 147 175
-0.022091977 0.03866099 -3.862684E-9 137 147 173
-0.020251008 0.03866099 -3.5407985E-9 133 143 169
-0.01841 0.03866099 -3.2189067E-9 130 143 152
-0.016568992 0.03866099 -2.8970146E-9 130 143 152
-0.014727986 0.03866099 -2.5751228E-9 130 142 156
-0.012850158 0.03855053 -0.0030000021 131 143 157
-0.011014447 0.03855053 -0.003000002 133 142 157
-0.0091787 0.03855053 -0.0030000017 130 139 154
-0.0073219123 0.03844007 -0.0060000014 131 139 152
-0.005491425 0.03844007 -0.006000001 128 136 149
-0.003660938 0.03844007 -0.0060000005 126 133 153
-0.0018252254 0.03832961 -0.009 126 133 153
1.57361E-9 0.03832961 -0.009 126 133 153
0.001830523 0.03844007 -0.0059999996 128 135 155
0.003660975 0.03844007 -0.0059999996 129 133 150
0.0055072065 0.03855053 -0.002999999 127 131 148
0.0073429886 0.03855053 -0.0029999989 129 130 150
0.009178702 0.03855053 -0.0029999984 130 131 151
0.011014484 0.03855053 -0.0029999982 123 128 156
0.012850195 0.03855053 -0.002999998 130 135 163
0.014727986 0.03866099 2.5751228E-9 126 138 154
0.01656903 0.03866099 2.897021E-9 126 138 154
0.01841 0.03866099 3.2189067E-9 127 139 155
0.020251041 0.03866099 3.5408045E-9 137 149 165
0.022092015 0.03866099 3.8626906E-9 127 139 155
0.024024159 0.03880827 0.0040000044 127 139 155
0.025872216 0.03880827 0.0040000044 134 146 158
0.0277202 0.03880827 0.004000005 136 148 160
0.029568257 0.03880827 0.0040000053 135 146 165
0.03150566 0.038918726 0.007000006 135 146 165
0.033358905 0.038918726 0.007000006 138 147 183
0.03531216 0.03902919 0.010000005 139 148 184
0.037275862 0.039139647 0.013000007 146 149 171
0.0391397 0.039139647 0.013000007 107 110 132
-0.044899356 0.037416127 0.016999992 84 84 86
-0.04302854 0.037416127 0.016999992 150 150 152
-0.041003436 0.037275854 0.012999993 149 158 175
-0.039139673 0.037275854 0.012999994 147 156 173
-0.037275873 0.037275854 0.012999994 144 157 175
-0.035312127 0.03717066 0.009999994 145 158 176
-0.033453587 0.03717066 0.009999994 148 157 191
-0.031505626 0.037065458 0.006999994 146 155 189
-0.029652381 0.037065458 0.0069999946 137 149 174
-0.0277202 0.03696026 0.003999995 138 150 175
-0.025872178 0.03696026 0.0039999955 135 145 173
-0.023932986 0.03681999 -4.1845762E-9 137 147 175
-0.022091977 0.03681999 -3.862684E-9 137 149 170
-0.020251008 0.03681999 -3.5407985E-9 131 143 164
-0.01841 0.03681999 -3.2189067E-9 128 145 155
-0.016568992 0.03681999 -2.8970146E-9 129 146 156
-0.014727986 0.03681999 -2.5751228E-9 130 142 156
-0.012850158 0.03671479 -0.0030000021 127 139 153
