ply
format ascii 1.0
comment This is your Processing ply file
element vertex 1171
property float x
property float y
property float z
property uchar red
property uchar green
property uchar blue
end_header
-0.16153459 -0.04584095 0.195 79 58 28
-0.15935169 -0.04584095 0.195 78 57 27
-0.15716878 -0.04584095 0.195 78 53 50
-0.1549859 -0.04584095 0.195 76 51 48
-0.122242406 -0.04584095 0.195 59 53 9
-0.120059505 -0.04584095 0.195 63 57 13
-0.0131324455 -0.03939744 0.02 28 19 6
-0.011224847 -0.039286982 0.017 22 12 6
-0.009318966 -0.039139703 0.013 22 12 6
-0.0074341265 -0.039029244 0.01 16 6 7
-0.005559806 -0.038918782 0.007 16 6 7
-0.0037065255 -0.038918782 0.007 11 8 9
-0.0018532805 -0.038918782 0.007 10 7 8
0.0 -0.038918782 0.007 9 7 21
0.0018533157 -0.038918782 0.007 7 5 19
0.003696041 -0.038808323 0.004 7 7 7
0.005544026 -0.038808323 0.004 7 7 7
0.007392082 -0.038808323 0.004 9 6 7
0.009240067 -0.038808323 0.004 8 5 6
0.011088123 -0.038808323 0.004 5 5 5
0.012936108 -0.038808323 0.004 5 5 5
0.014784093 -0.038808323 0.004 3 5 0
0.016632149 -0.038808323 0.004 4 6 1
0.018480133 -0.038808323 0.004 7 5 1
0.02032819 -0.038808323 0.004 6 4 0
0.022176174 -0.038808323 0.004 4 4 4
0.024024159 -0.038808323 0.004 5 5 5
0.025872216 -0.038808323 0.004 7 4 3
0.0277202 -0.038808323 0.004 7 4 3
0.029568257 -0.038808323 0.004 7 5 1
0.03141624 -0.038808323 0.004 6 4 0
0.033264223 -0.038808323 0.004 6 3 2
0.03511228 -0.038808323 0.004 6 3 2
0.036960267 -0.038808323 0.004 4 3 0
0.038808323 -0.038808323 0.004 5 4 0
0.040656306 -0.038808323 0.004 10 8 2
0.042504292 -0.038808323 0.004 28 26 20
-0.15716878 -0.048023816 0.195 77 52 49
-0.1549859 -0.048023816 0.195 75 50 47
-0.1287911 -0.048023816 0.195 69 51 39
-0.12660818 -0.048023816 0.195 68 50 38
-0.12442528 -0.048023816 0.195 67 49 37
-0.122242406 -0.048023816 0.195 65 58 19
-0.120059505 -0.048023816 0.195 65 58 19
-0.0131324455 -0.04127348 0.02 19 10 77
-0.011224847 -0.04115776 0.017 8 6 0
-0.009318966 -0.04100347 0.013 10 8 0
-0.0074341265 -0.040887747 0.01 15 5 8
-0.0055755856 -0.040887747 0.01 15 5 8
-0.0037065255 -0.040772025 0.007 9 6 7
-0.0018532805 -0.040772025 0.007 9 6 7
0.0 -0.040772025 0.007 7 6 20
0.0018533157 -0.040772025 0.007 6 5 19
0.003706561 -0.040772025 0.007 9 6 7
0.005544026 -0.040656306 0.004 11 8 9
0.007392082 -0.040656306 0.004 10 4 13
0.009240067 -0.040656306 0.004 9 3 12
0.011088123 -0.040656306 0.004 7 7 7
0.012936108 -0.040656306 0.004 5 5 5
0.014784093 -0.040656306 0.004 7 5 1
0.016632149 -0.040656306 0.004 7 5 1
0.018480133 -0.040656306 0.004 8 6 0
0.02032819 -0.040656306 0.004 7 5 0
0.022176174 -0.040656306 0.004 7 4 3
0.024024159 -0.040656306 0.004 6 3 2
0.025872216 -0.040656306 0.004 7 4 3
0.0277202 -0.040656306 0.004 6 3 2
0.029568257 -0.040656306 0.004 7 4 3
0.03141624 -0.040656306 0.004 9 6 5
0.033264223 -0.040656306 0.004 7 4 3
0.03511228 -0.040656306 0.004 6 3 2
0.036960267 -0.040656306 0.004 4 3 0
0.038808323 -0.040656306 0.004 6 5 1
0.040656306 -0.040656306 0.004 11 8 9
0.042504292 -0.040656306 0.004 30 27 28
0.04435235 -0.040656306 0.004 36 28 6
-0.16153459 -0.050206747 0.195 73 54 19
-0.15935169 -0.050206747 0.195 74 55 20
-0.15716878 -0.050206747 0.195 75 51 41
-0.1549859 -0.050206747 0.195 76 52 42
-0.1287911 -0.050206747 0.195 67 50 35
-0.12660818 -0.050206747 0.195 65 57 28
-0.12442528 -0.050206747 0.195 64 56 27
-0.122242406 -0.050206747 0.195 65 57 28
-0.120059505 -0.050206747 0.195 66 58 29
-0.024548404 -0.04343186 0.027 25 21 20
-0.02266006 -0.04343186 0.027 20 17 34
-0.020771747 -0.04343186 0.027 11 8 25
-0.0188834 -0.04343186 0.027 50 40 48
-0.016884591 -0.043149576 0.02 148 138 146
-0.015008519 -0.043149576 0.02 146 138 136
-0.0131324455 -0.043149576 0.02 17 9 7
-0.011224847 -0.04302859 0.017 0 0 0
-0.009318966 -0.042867288 0.013 7 7 7
-0.0074341265 -0.04274631 0.01 10 7 8
-0.0055755856 -0.04274631 0.01 9 6 7
-0.0037065255 -0.042625323 0.007 7 4 3
-0.0018532805 -0.042625323 0.007 9 6 5
0.0 -0.042625323 0.007 8 4 10
0.0018533157 -0.042625323 0.007 6 2 8
0.003706561 -0.042625323 0.007 7 3 9
0.005544026 -0.042504344 0.004 8 4 10
0.007392082 -0.042504344 0.004 10 4 13
0.009240067 -0.042504344 0.004 10 4 13
0.011088123 -0.042504344 0.004 7 7 7
0.012936108 -0.042504344 0.004 5 5 5
0.014784093 -0.042504344 0.004 7 5 1
0.016632149 -0.042504344 0.004 8 6 2
0.018480133 -0.042504344 0.004 7 5 1
0.02032819 -0.042504344 0.004 7 5 1
0.022176174 -0.042504344 0.004 4 4 4
0.024024159 -0.042504344 0.004 4 4 4
0.025872216 -0.042504344 0.004 4 4 4
0.0277202 -0.042504344 0.004 5 5 5
0.029568257 -0.042504344 0.004 7 4 3
0.03141624 -0.042504344 0.004 7 4 3
0.033264223 -0.042504344 0.004 8 4 10
0.03511228 -0.042504344 0.004 7 3 9
0.036960267 -0.042504344 0.004 6 3 2
0.038808323 -0.042504344 0.004 8 5 4
0.040656306 -0.042504344 0.004 11 8 9
0.042504292 -0.042504344 0.004 34 31 32
0.04435235 -0.042504344 0.004 40 32 10
-0.16153459 -0.052389614 0.195 72 53 18
-0.15935169 -0.052389614 0.195 74 55 20
-0.15716878 -0.052389614 0.195 77 55 33
-0.1549859 -0.052389614 0.195 79 57 35
-0.13315691 -0.052389614 0.195 61 52 37
-0.130974 -0.052389614 0.195 60 52 21
-0.1287911 -0.052389614 0.195 64 56 25
-0.12660818 -0.052389614 0.195 61 55 39
-0.122242406 -0.052389614 0.195 62 56 40
-0.120059505 -0.052389614 0.195 63 57 41
-0.030213447 -0.045320172 0.027 27 26 33
-0.0283251 -0.045320172 0.027 20 19 26
-0.026436752 -0.045320172 0.027 30 25 27
-0.024548404 -0.045320172 0.027 30 25 27
-0.02266006 -0.045320172 0.027 23 23 23
-0.020771747 -0.045320172 0.027 7 7 7
-0.0188834 -0.045320172 0.027 51 48 65
-0.016995052 -0.045320172 0.027 146 143 160
-0.015008519 -0.045025613 0.02 142 135 222
-0.013095625 -0.04489937 0.017 9 2 89
-0.011224847 -0.04489937 0.017 0 0 0
-0.009318966 -0.04473105 0.013 6 6 6
-0.0074551664 -0.04473105 0.013 11 8 9
-0.0055755856 -0.044604808 0.01 11 8 9
-0.0037170453 -0.044604808 0.01 9 6 7
-0.0018532805 -0.04447857 0.007 9 6 7
0.0 -0.04447857 0.007 9 5 11
0.0018533157 -0.04447857 0.007 9 5 11
0.003706561 -0.04447857 0.007 7 4 3
0.005544026 -0.04435233 0.004 9 6 5
0.007392082 -0.04435233 0.004 10 4 20
0.009240067 -0.04435233 0.004 9 3 19
0.011088123 -0.04435233 0.004 9 6 7
0.012936108 -0.04435233 0.004 7 4 5
0.014784093 -0.04435233 0.004 7 4 3
0.016632149 -0.04435233 0.004 8 5 4
0.018480133 -0.04435233 0.004 8 5 6
0.02032819 -0.04435233 0.004 7 4 5
0.022176174 -0.04435233 0.004 3 3 14
0.024024159 -0.04435233 0.004 2 2 13
0.025872216 -0.04435233 0.004 4 4 4
0.0277202 -0.04435233 0.004 4 4 4
0.029568257 -0.04435233 0.004 6 3 2
0.03141624 -0.04435233 0.004 7 4 3
0.033264223 -0.04435233 0.004 7 3 9
0.03511228 -0.04435233 0.004 7 3 9
0.036960267 -0.04435233 0.004 7 4 3
0.038808323 -0.04435233 0.004 8 5 4
0.040656306 -0.04435233 0.004 9 6 7
0.042504292 -0.04435233 0.004 30 27 28
-0.15935169 -0.05457254 0.195 70 55 16
-0.15716878 -0.05457254 0.195 74 55 30
-0.14407142 -0.05457254 0.195 30 15 27
-0.1418885 -0.05457254 0.195 77 62 74
-0.1397056 -0.05457254 0.195 80 64 42
-0.13752268 -0.05457254 0.195 77 61 39
-0.13533978 -0.05457254 0.195 67 49 37
-0.13315691 -0.05457254 0.195 66 48 36
-0.130974 -0.05457254 0.195 66 51 10
-0.1287911 -0.05457254 0.195 69 54 13
-0.12660818 -0.05457254 0.195 65 57 26
-0.032101758 -0.047208533 0.027 27 24 16
-0.030213447 -0.047208533 0.027 26 25 32
-0.0283251 -0.047208533 0.027 20 19 26
-0.026436752 -0.047208533 0.027 25 24 31
-0.024548404 -0.047208533 0.027 44 43 50
-0.02266006 -0.047208533 0.027 43 46 29
-0.020771747 -0.047208533 0.027 26 29 12
-0.0188834 -0.047208533 0.027 97 60 84
-0.016931932 -0.047033202 0.023 237 200 224
-0.015008519 -0.046901703 0.02 214 198 215
-0.013095625 -0.046770204 0.017 28 12 29
-0.011182767 -0.04659487 0.013 0 0 2
-0.009318966 -0.04659487 0.013 7 8 10
-0.0074551664 -0.04659487 0.013 11 8 9
-0.0055755856 -0.046463367 0.01 10 7 8
-0.0037170453 -0.046463367 0.01 10 4 13
-0.0018585405 -0.046463367 0.01 10 4 13
0.0 -0.046331868 0.007 10 4 13
0.0018533157 -0.046331868 0.007 10 4 13
0.003706561 -0.046331868 0.007 9 6 7
0.005544026 -0.04620037 0.004 10 7 8
0.007392082 -0.04620037 0.004 12 5 30
0.009240067 -0.04620037 0.004 10 3 28
0.011088123 -0.04620037 0.004 9 6 7
0.012936108 -0.04620037 0.004 7 4 5
0.014784093 -0.04620037 0.004 7 4 3
0.016632149 -0.04620037 0.004 7 4 3
0.018480133 -0.04620037 0.004 7 4 3
0.02032819 -0.04620037 0.004 9 6 5
0.022176174 -0.04620037 0.004 7 5 19
0.024024159 -0.04620037 0.004 4 2 16
0.025872216 -0.04620037 0.004 3 5 0
0.0277202 -0.04620037 0.004 4 6 1
0.029568257 -0.04620037 0.004 6 3 2
0.03141624 -0.04620037 0.004 6 3 2
0.033264223 -0.04620037 0.004 7 4 3
0.03511228 -0.04620037 0.004 7 4 3
0.036960267 -0.04620037 0.004 8 6 0
0.038808323 -0.04620037 0.004 8 6 0
0.040656306 -0.04620037 0.004 9 6 7
0.042504292 -0.04620037 0.004 29 26 27
-0.16153459 -0.05675541 0.195 63 48 7
-0.15935169 -0.05675541 0.195 70 55 14
-0.15716878 -0.05675541 0.195 77 72 44
-0.1549859 -0.05675541 0.195 63 58 30
-0.14625427 -0.05675541 0.195 17 4 15
-0.14407142 -0.05675541 0.195 34 16 13
-0.1418885 -0.05675541 0.195 75 57 54
-0.1397056 -0.05675541 0.195 75 61 26
-0.13752268 -0.05675541 0.195 73 59 24
-0.13533978 -0.05675541 0.195 70 53 25
-0.13315691 -0.05675541 0.195 68 51 23
-0.130974 -0.05675541 0.195 71 51 14
-0.1287911 -0.05675541 0.195 74 54 17
-0.0357452 -0.0489145 0.023 31 28 20
-0.033863865 -0.0489145 0.023 22 19 11
-0.031982534 -0.0489145 0.023 32 29 21
-0.030213447 -0.04909685 0.027 38 36 48
-0.0283251 -0.04909685 0.027 29 27 39
-0.026436752 -0.04909685 0.027 28 27 34
-0.024548404 -0.04909685 0.027 49 48 55
-0.0225759 -0.0489145 0.023 44 50 41
-0.0206946 -0.0489145 0.023 15 21 12
-0.0188834 -0.04909685 0.027 100 79 86
-0.016931932 -0.0489145 0.023 230 209 216
-0.015008519 -0.04877774 0.02 215 197 255
-0.013095625 -0.04864098 0.017 19 1 62
-0.011182767 -0.048458632 0.013 0 0 0
-0.009318966 -0.048458632 0.013 9 9 9
-0.0074551664 -0.048458632 0.013 11 8 9
-0.0055755856 -0.048321873 0.01 10 7 8
-0.0037170453 -0.048321873 0.01 9 5 11
-0.0018585405 -0.048321873 0.01 9 5 11
0.0 -0.048321873 0.01 10 4 13
0.0018533157 -0.048185114 0.007 11 5 14
0.003706561 -0.048185114 0.007 10 7 8
0.005544026 -0.048048355 0.004 10 7 8
0.007392082 -0.048048355 0.004 11 5 14
0.009240067 -0.048048355 0.004 10 4 13
0.011088123 -0.048048355 0.004 10 4 13
0.012936108 -0.048048355 0.004 10 4 13
0.014784093 -0.048048355 0.004 7 4 3
0.016632149 -0.048048355 0.004 7 4 3
0.018480133 -0.048048355 0.004 7 4 3
0.02032819 -0.048048355 0.004 9 6 5
0.022176174 -0.048048355 0.004 7 6 13
0.024024159 -0.048048355 0.004 5 4 11
0.025872216 -0.048048355 0.004 7 5 1
0.0277202 -0.048048355 0.004 8 6 2
0.029568257 -0.048048355 0.004 6 3 2
0.03141624 -0.048048355 0.004 6 3 2
0.033264223 -0.048048355 0.004 5 4 2
0.03511228 -0.048048355 0.004 5 4 2
0.036960267 -0.048048355 0.004 7 5 1
0.038808323 -0.048048355 0.004 8 6 2
0.040656306 -0.048048355 0.004 9 6 7
0.042504292 -0.048048355 0.004 31 28 29
0.04435235 -0.048048355 0.004 40 32 10
-0.16153459 -0.05893834 0.195 58 51 16
-0.15935169 -0.05893834 0.195 63 56 21
-0.15716878 -0.05893834 0.195 57 56 3
-0.1549859 -0.05893834 0.195 35 34 0
-0.14625427 -0.05893834 0.195 12 8 7
-0.14407142 -0.05893834 0.195 37 22 18
-0.1418885 -0.05893834 0.195 71 56 52
-0.1397056 -0.05893834 0.195 72 55 10
-0.13752268 -0.05893834 0.195 73 56 11
-0.13533978 -0.05893834 0.195 72 53 18
-0.13315691 -0.05893834 0.195 74 55 20
-0.130974 -0.05893834 0.195 70 55 16
-0.0357452 -0.050795853 0.023 50 48 40
-0.033863865 -0.050795853 0.023 42 44 34
-0.031982534 -0.050795853 0.023 45 47 37
-0.030213447 -0.050985213 0.027 43 38 69
-0.0283251 -0.050985213 0.027 36 31 62
-0.026436752 -0.050985213 0.027 36 35 42
-0.024548404 -0.050985213 0.027 53 52 59
-0.0225759 -0.050795853 0.023 46 46 46
-0.0206946 -0.050795853 0.023 18 18 18
-0.0188834 -0.050985213 0.027 113 62 61
-0.016931932 -0.050795853 0.023 255 211 210
-0.014966439 -0.05051181 0.017 220 194 214
-0.013095625 -0.05051181 0.017 22 0 16
-0.011182767 -0.05032245 0.013 0 0 0
-0.009318966 -0.05032245 0.013 10 10 10
-0.0074551664 -0.05032245 0.013 13 11 5
-0.005591366 -0.05032245 0.013 11 9 3
-0.0037170453 -0.05018043 0.01 9 5 11
-0.0018585405 -0.05018043 0.01 9 5 11
0.0 -0.05018043 0.01 9 5 11
0.0018533157 -0.05003841 0.007 9 5 11
0.003706561 -0.05003841 0.007 9 6 7
0.005559806 -0.05003841 0.007 9 6 7
0.007392082 -0.049896393 0.004 7 5 1
0.009240067 -0.049896393 0.004 9 7 3
0.011088123 -0.049896393 0.004 9 6 7
0.012936108 -0.049896393 0.004 8 5 6
0.014784093 -0.049896393 0.004 7 5 1
0.016632149 -0.049896393 0.004 6 4 0
0.018480133 -0.049896393 0.004 4 4 4
0.02032819 -0.049896393 0.004 5 5 5
0.022176174 -0.049896393 0.004 5 4 11
0.024024159 -0.049896393 0.004 5 4 11
0.025872216 -0.049896393 0.004 4 6 1
0.0277202 -0.049896393 0.004 4 6 1
0.029568257 -0.049896393 0.004 3 4 8
0.03141624 -0.049896393 0.004 3 4 8
0.033264223 -0.049896393 0.004 6 3 2
0.03511228 -0.049896393 0.004 6 3 2
0.036960267 -0.049896393 0.004 4 3 0
0.038808323 -0.049896393 0.004 4 3 0
0.040656306 -0.049896393 0.004 9 9 9
0.042504292 -0.049896393 0.004 32 32 32
0.04435235 -0.049896393 0.004 40 34 11
-0.15935169 -0.061121203 0.195 43 38 19
-0.15716878 -0.061121203 0.195 41 34 18
-0.14407142 -0.061121203 0.195 37 27 21
-0.14143263 -0.06092483 0.191 69 59 53
-0.13925675 -0.06092483 0.191 72 55 10
-0.13752268 -0.061121203 0.195 73 56 11
-0.13533978 -0.061121203 0.195 72 52 25
-0.13315691 -0.061121203 0.195 74 54 27
-0.130974 -0.061121203 0.195 75 59 35
-0.1287911 -0.061121203 0.195 66 50 26
-0.12660818 -0.061121203 0.195 64 48 16
-0.12442528 -0.061121203 0.195 66 50 18
-0.122242406 -0.061121203 0.195 69 49 12
-0.120059505 -0.061121203 0.195 72 52 15
-0.0357452 -0.05267715 0.023 32 29 21
-0.033863865 -0.05267715 0.023 32 27 29
-0.031982534 -0.05267715 0.023 40 35 37
-0.030213447 -0.052873522 0.027 37 35 47
-0.0283251 -0.052873522 0.027 33 31 43
-0.026436752 -0.052873522 0.027 38 35 27
-0.024548404 -0.052873522 0.027 46 43 35
-0.0225759 -0.05267715 0.023 38 38 38
-0.0206946 -0.05267715 0.023 10 10 10
-0.0188834 -0.052873522 0.027 90 65 60
-0.016931932 -0.05267715 0.023 235 210 205
-0.014966439 -0.052382592 0.017 208 190 238
-0.013095625 -0.052382592 0.017 15 0 45
-0.011182767 -0.052186217 0.013 0 0 2
-0.009318966 -0.052186217 0.013 8 9 11
-0.0074551664 -0.052186217 0.013 12 9 10
-0.005591366 -0.052186217 0.013 11 8 9
-0.0037170453 -0.052038938 0.01 7 6 13
-0.0018585405 -0.052038938 0.01 8 7 14
0.0 -0.052038938 0.01 11 5 14
0.0018585759 -0.052038938 0.01 11 5 14
0.003717081 -0.052038938 0.01 10 7 8
0.005559806 -0.05189166 0.007 9 6 7
0.007413122 -0.05189166 0.007 9 7 1
0.009240067 -0.051744375 0.004 9 7 1
0.011088123 -0.051744375 0.004 9 6 7
0.012936108 -0.051744375 0.004 8 5 6
0.014784093 -0.051744375 0.004 7 5 1
0.016632149 -0.051744375 0.004 6 4 0
0.018480133 -0.051744375 0.004 5 5 5
0.02032819 -0.051744375 0.004 5 5 5
0.022176174 -0.051744375 0.004 4 3 8
0.024024159 -0.051744375 0.004 5 4 9
0.025872216 -0.051744375 0.004 4 6 1
0.0277202 -0.051744375 0.004 4 6 1
0.029568257 -0.051744375 0.004 5 5 5
0.03141624 -0.051744375 0.004 5 5 5
0.033264223 -0.051744375 0.004 5 5 5
0.03511228 -0.051744375 0.004 5 5 5
0.036960267 -0.051744375 0.004 2 6 0
0.038808323 -0.051744375 0.004 1 5 0
0.040656306 -0.051744375 0.004 10 10 10
0.042504292 -0.051744375 0.004 28 28 28
0.04435235 -0.051744375 0.004 37 29 7
-0.174632 -0.06330413 0.195 70 50 23
-0.1724491 -0.06330413 0.195 69 49 22
-0.1702662 -0.06330413 0.195 69 49 12
-0.16808328 -0.06330413 0.195 68 48 11
-0.14407142 -0.06330413 0.195 18 5 23
-0.14143263 -0.06310075 0.191 66 53 71
-0.13925675 -0.06310075 0.191 72 55 10
-0.13752268 -0.06330413 0.195 72 55 10
-0.13533978 -0.06330413 0.195 70 52 40
-0.13315691 -0.06330413 0.195 70 52 40
-0.130974 -0.06330413 0.195 66 58 29
-0.1287911 -0.06330413 0.195 61 53 24
-0.12660818 -0.06330413 0.195 64 45 31
-0.12442528 -0.06330413 0.195 63 44 30
-0.122242406 -0.06330413 0.195 65 46 6
-0.120059505 -0.06330413 0.195 69 50 10
-0.035878453 -0.05476189 0.027 24 21 13
-0.033990104 -0.05476189 0.027 27 23 22
-0.032101758 -0.05476189 0.027 37 33 32
-0.030213447 -0.05476189 0.027 36 31 33
-0.0283251 -0.05476189 0.027 17 12 14
-0.026436752 -0.05476189 0.027 23 20 12
-0.024548404 -0.05476189 0.027 43 40 32
-0.0225759 -0.0545585 0.023 41 39 51
-0.0206946 -0.0545585 0.023 12 10 22
-0.0188834 -0.05476189 0.027 103 49 40
-0.016931932 -0.0545585 0.023 255 210 201
-0.015008519 -0.054405965 0.02 212 187 211
-0.013095625 -0.05425342 0.017 20 0 19
-0.011182767 -0.054050032 0.013 0 0 2
-0.009318966 -0.054050032 0.013 7 8 10
-0.0074551664 -0.054050032 0.013 11 8 9
-0.005591366 -0.054050032 0.013 10 7 8
-0.0037170453 -0.053897496 0.01 11 5 14
-0.0018585405 -0.053897496 0.01 12 6 15
0.0 -0.053897496 0.01 16 6 7
0.0018585759 -0.053897496 0.01 15 5 6
0.003717081 -0.053897496 0.01 10 7 8
0.005559806 -0.053744953 0.007 10 7 8
0.007413122 -0.053744953 0.007 10 8 2
0.009266367 -0.053744953 0.007 11 9 3
0.011119682 -0.053744953 0.007 10 8 2
0.012936108 -0.053592414 0.004 9 7 1
0.014784093 -0.053592414 0.004 7 5 0
0.016632149 -0.053592414 0.004 9 7 0
0.018480133 -0.053592414 0.004 6 6 6
0.02032819 -0.053592414 0.004 5 5 5
0.022176174 -0.053592414 0.004 3 7 3
0.024024159 -0.053592414 0.004 1 5 1
0.025872216 -0.053592414 0.004 3 5 0
0.0277202 -0.053592414 0.004 6 8 3
0.029568257 -0.053592414 0.004 8 6 0
0.03141624 -0.053592414 0.004 7 5 0
0.033264223 -0.053592414 0.004 4 4 4
0.03511228 -0.053592414 0.004 4 4 4
0.036960267 -0.053592414 0.004 4 4 4
0.038808323 -0.053592414 0.004 7 7 7
0.040656306 -0.053592414 0.004 8 8 8
0.042504292 -0.053592414 0.004 26 26 26
0.04435235 -0.053592414 0.004 37 31 0
-0.174632 -0.065487 0.195 65 44 14
-0.1724491 -0.065487 0.195 65 44 14
-0.1702662 -0.065487 0.195 62 47 6
-0.16808328 -0.065487 0.195 75 60 19
-0.14143263 -0.0652766 0.191 65 55 56
-0.13925675 -0.0652766 0.191 70 55 16
-0.13708085 -0.0652766 0.191 70 55 16
-0.13533978 -0.065487 0.195 70 52 40
-0.13315691 -0.065487 0.195 70 52 40
-0.130974 -0.065487 0.195 62 53 38
-0.1287911 -0.065487 0.195 59 50 35
-0.12660818 -0.065487 0.195 59 50 33
-0.12442528 -0.065487 0.195 58 49 32
-0.122242406 -0.065487 0.195 63 48 7
-0.120059505 -0.065487 0.195 67 52 11
-0.035878453 -0.0566502 0.027 24 21 13
-0.033990104 -0.0566502 0.027 33 23 17
-0.032101758 -0.0566502 0.027 42 32 26
-0.030213447 -0.0566502 0.027 39 33 42
-0.0283251 -0.0566502 0.027 32 26 35
-0.026436752 -0.0566502 0.027 27 24 16
-0.024548404 -0.0566502 0.027 40 37 29
-0.0225759 -0.056439802 0.023 53 53 53
-0.0206946 -0.056439802 0.023 16 16 16
-0.0188834 -0.0566502 0.027 94 45 55
-0.016931932 -0.056439802 0.023 228 179 189
-0.014966439 -0.0561242 0.017 200 179 218
-0.013095625 -0.0561242 0.017 19 0 37
-0.011182767 -0.0559138 0.013 0 0 0
-0.009318966 -0.0559138 0.013 8 8 8
-0.0074551664 -0.0559138 0.013 12 9 10
-0.005591366 -0.0559138 0.013 11 8 9
-0.0037275653 -0.0559138 0.013 16 6 7
-0.0018585405 -0.055756 0.01 17 7 8
0.0 -0.055756 0.01 16 6 9
0.0018585759 -0.055756 0.01 16 6 9
0.003717081 -0.055756 0.01 11 8 9
0.005559806 -0.055598203 0.007 10 7 8
0.007413122 -0.055598203 0.007 10 7 8
0.009266367 -0.055598203 0.007 10 7 8
0.011119682 -0.055598203 0.007 10 7 8
0.012972927 -0.055598203 0.007 9 6 7
0.014826173 -0.055598203 0.007 7 10 2
0.01667949 -0.055598203 0.007 6 9 1
0.018532734 -0.055598203 0.007 8 8 8
0.02038605 -0.055598203 0.007 8 8 8
0.022176174 -0.0554404 0.004 3 7 10
0.024024159 -0.0554404 0.004 1 5 8
0.025872216 -0.0554404 0.004 7 7 7
0.0277202 -0.0554404 0.004 9 9 9
0.029568257 -0.0554404 0.004 10 8 2
0.03141624 -0.0554404 0.004 7 5 0
0.033264223 -0.0554404 0.004 7 4 3
0.03511228 -0.0554404 0.004 7 4 3
0.036960267 -0.0554404 0.004 6 9 1
0.038808323 -0.0554404 0.004 6 9 1
0.040502016 -0.05523 0.0 9 6 7
0.042342987 -0.05523 0.0 29 26 27
0.04418403 -0.05523 0.0 37 31 0
-0.035878453 -0.058538567 0.027 19 14 16
-0.033990104 -0.058538567 0.027 15 18 8
-0.032101758 -0.058538567 0.027 21 24 14
-0.030213447 -0.058538567 0.027 26 22 46
-0.0283251 -0.058538567 0.027 27 23 47
-0.026436752 -0.058538567 0.027 30 25 27
-0.024548404 -0.058538567 0.027 31 26 28
-0.02266006 -0.058538567 0.027 50 52 14
-0.020771747 -0.058538567 0.027 34 36 0
-0.0188834 -0.058538567 0.027 84 43 66
-0.016931932 -0.058321152 0.023 197 156 179
-0.014966439 -0.057995033 0.017 181 160 169
-0.013095625 -0.057995033 0.017 32 11 20
-0.011182767 -0.057777617 0.013 0 0 0
-0.009318966 -0.057777617 0.013 9 9 9
-0.0074551664 -0.057777617 0.013 13 11 5
-0.005591366 -0.057777617 0.013 13 11 5
-0.0037275653 -0.057777617 0.013 13 11 5
-0.0018638005 -0.057777617 0.013 11 9 3
0.0 -0.057777617 0.013 11 8 9
0.0018585759 -0.057614557 0.01 12 9 10
0.003717081 -0.057614557 0.01 11 8 9
0.0055755856 -0.057614557 0.01 11 8 9
0.007434162 -0.057614557 0.01 11 8 9
0.009266367 -0.0574515 0.007 11 8 9
0.011119682 -0.0574515 0.007 9 9 9
0.012972927 -0.0574515 0.007 9 9 9
0.014826173 -0.0574515 0.007 7 7 7
0.01667949 -0.0574515 0.007 7 7 7
0.018532734 -0.0574515 0.007 8 8 8
0.02038605 -0.0574515 0.007 8 8 8
0.022239294 -0.0574515 0.007 4 8 13
0.024092538 -0.0574515 0.007 4 8 13
0.025872216 -0.057288438 0.004 7 6 13
0.0277202 -0.057288438 0.004 9 8 15
0.029568257 -0.057288438 0.004 7 7 7
0.03141624 -0.057288438 0.004 7 7 7
0.033264223 -0.057288438 0.004 7 10 2
0.03511228 -0.057288438 0.004 6 9 1
0.036960267 -0.057288438 0.004 7 7 7
0.038808323 -0.057288438 0.004 8 8 8
0.040502016 -0.057071026 0.0 20 8 10
0.042342987 -0.057071026 0.0 39 27 29
0.04418403 -0.057071026 0.0 40 30 0
-0.036211587 -0.060987998 0.037 15 18 8
-0.034084786 -0.060595248 0.03 11 20 8
-0.032191176 -0.060595248 0.03 12 21 9
-0.030297607 -0.060595248 0.03 16 22 27
-0.028404 -0.060595248 0.03 13 19 24
-0.026436752 -0.060426928 0.027 17 20 10
-0.024548404 -0.060426928 0.027 27 30 20
-0.02266006 -0.060426928 0.027 21 28 26
-0.020771747 -0.060426928 0.027 30 37 35
-0.0188834 -0.060426928 0.027 67 39 55
-0.016931932 -0.0602025 0.023 152 124 140
-0.015008519 -0.060034182 0.02 136 131 151
-0.013095625 -0.059865862 0.017 10 5 25
-0.011182767 -0.059641436 0.013 0 0 0
-0.009318966 -0.059641436 0.013 8 8 8
-0.0074551664 -0.059641436 0.013 12 9 10
-0.005591366 -0.059641436 0.013 13 10 11
-0.0037275653 -0.059641436 0.013 9 9 9
-0.0018638005 -0.059641436 0.013 7 7 7
0.0 -0.059641436 0.013 9 9 9
0.0018638361 -0.059641436 0.013 9 9 9
0.003717081 -0.05947312 0.01 12 9 10
0.0055755856 -0.05947312 0.01 13 10 11
0.007434162 -0.05947312 0.01 13 10 11
0.009292667 -0.05947312 0.01 12 9 10
0.011151242 -0.05947312 0.01 10 9 16
0.0130097475 -0.05947312 0.01 8 7 14
0.014868253 -0.05947312 0.01 7 6 13
0.016726827 -0.05947312 0.01 7 6 13
0.018585334 -0.05947312 0.01 9 6 7
0.020443909 -0.05947312 0.01 9 6 7
0.022239294 -0.059304796 0.007 7 6 13
0.024092538 -0.059304796 0.007 7 6 13
0.025945853 -0.059304796 0.007 7 6 20
0.0277202 -0.059136476 0.004 6 5 19
0.029568257 -0.059136476 0.004 6 9 1
0.03150566 -0.059304796 0.007 6 9 1
0.033264223 -0.059136476 0.004 3 8 4
0.03511228 -0.059136476 0.004 1 6 2
0.036960267 -0.059136476 0.004 7 7 7
0.038808323 -0.059136476 0.004 7 7 7
0.040656306 -0.059136476 0.004 24 9 5
0.042504292 -0.059136476 0.004 45 30 26
0.04435235 -0.059136476 0.004 42 33 0
-0.036211587 -0.06289384 0.037 23 25 15
-0.034211025 -0.06272026 0.034 27 25 8
-0.032310404 -0.06272026 0.034 28 26 9
-0.030297607 -0.062488824 0.03 27 24 16
-0.028404 -0.062488824 0.03 15 12 4
-0.026436752 -0.062315244 0.027 17 21 4
-0.024548404 -0.062315244 0.027 25 29 12
-0.02266006 -0.062315244 0.027 30 25 27
-0.020771747 -0.062315244 0.027 5 0 2
-0.0188834 -0.062315244 0.027 11 2 0
-0.016931932 -0.062083803 0.023 19 10 6
-0.015008519 -0.06191022 0.02 15 1 0
-0.0131324455 -0.06191022 0.02 10 0 0
-0.011224847 -0.06173664 0.017 3 1 2
-0.0093540335 -0.06173664 0.017 10 8 9
-0.0074551664 -0.061505202 0.013 17 7 8
-0.005591366 -0.061505202 0.013 16 6 7
-0.0037275653 -0.061505202 0.013 11 9 3
-0.0018638005 -0.061505202 0.013 11 9 3
0.0 -0.061505202 0.013 12 9 10
0.0018638361 -0.061505202 0.013 12 9 10
0.003717081 -0.061331622 0.01 12 10 2
0.0055755856 -0.061331622 0.01 12 10 2
0.007434162 -0.061331622 0.01 12 9 10
0.009292667 -0.061331622 0.01 13 10 11
0.011151242 -0.061331622 0.01 9 8 15
0.0130097475 -0.061331622 0.01 8 7 14
0.014868253 -0.061331622 0.01 7 6 13
0.016726827 -0.061331622 0.01 7 6 13
0.018585334 -0.061331622 0.01 9 6 7
0.020443909 -0.061331622 0.01 9 6 7
0.022239294 -0.061158042 0.007 9 6 7
0.024092538 -0.061158042 0.007 9 6 7
0.025945853 -0.061158042 0.007 8 6 29
0.027799102 -0.061158042 0.007 6 4 27
0.029652417 -0.061158042 0.007 4 6 1
0.03150566 -0.061158042 0.007 5 7 2
0.033264223 -0.060984462 0.004 3 8 4
0.03511228 -0.060984462 0.004 1 6 2
0.036960267 -0.060984462 0.004 4 4 4
0.038808323 -0.060984462 0.004 8 8 8
0.040656306 -0.060984462 0.004 22 12 6
0.042504292 -0.060984462 0.004 39 29 23
0.04435235 -0.060984462 0.004 40 28 7
-0.034305707 -0.06479974 0.037 37 28 13
-0.032310404 -0.064620905 0.034 39 30 15
-0.030297607 -0.06438245 0.03 39 25 12
-0.028404 -0.06438245 0.03 35 21 8
-0.026436752 -0.064203605 0.027 23 20 12
-0.024548404 -0.064203605 0.027 29 26 18
-0.02266006 -0.064203605 0.027 40 34 43
-0.020771747 -0.064203605 0.027 15 9 18
-0.018936 -0.06438245 0.03 7 3 9
-0.016995052 -0.064203605 0.027 2 0 4
-0.015008519 -0.06378631 0.02 0 0 0
-0.0131324455 -0.06378631 0.02 2 2 2
-0.011224847 -0.06360747 0.017 10 8 2
-0.0093540335 -0.06360747 0.017 11 9 3
-0.0074551664 -0.06336902 0.013 16 6 9
-0.005591366 -0.06336902 0.013 17 7 10
-0.0037275653 -0.06336902 0.013 17 7 8
-0.0018638005 -0.06336902 0.013 17 7 8
0.0 -0.06336902 0.013 13 10 11
0.0018638361 -0.06336902 0.013 13 10 11
0.003717081 -0.06319018 0.01 13 11 5
0.0055755856 -0.06319018 0.01 12 10 4
0.007434162 -0.06319018 0.01 13 7 16
0.009292667 -0.06319018 0.01 13 7 16
0.011151242 -0.06319018 0.01 11 8 9
0.0130097475 -0.06319018 0.01 11 8 9
0.014868253 -0.06319018 0.01 8 7 14
0.016726827 -0.06319018 0.01 8 7 14
0.018585334 -0.06319018 0.01 10 4 13
0.020443909 -0.06319018 0.01 11 5 14
0.022302413 -0.06319018 0.01 10 7 8
0.02416092 -0.06319018 0.01 9 6 7
0.025945853 -0.06301134 0.007 7 5 19
0.027799102 -0.06301134 0.007 7 5 19
0.029652417 -0.06301134 0.007 8 5 6
0.03150566 -0.06301134 0.007 8 5 6
0.033264223 -0.0628325 0.004 7 7 7
0.03511228 -0.0628325 0.004 7 7 7
0.036960267 -0.0628325 0.004 6 9 0
0.038808323 -0.0628325 0.004 8 11 1
0.040656306 -0.0628325 0.004 16 13 5
0.042504292 -0.0628325 0.004 32 29 21
-0.032310404 -0.06652148 0.034 34 25 10
-0.030297607 -0.066276014 0.03 36 21 17
-0.028404 -0.066276014 0.03 34 19 15
-0.026436752 -0.06609192 0.027 26 21 23
-0.024548404 -0.06609192 0.027 28 23 25
-0.02266006 -0.06609192 0.027 38 31 47
-0.020771747 -0.06609192 0.027 13 6 22
-0.018936 -0.066276014 0.03 3 3 14
-0.016995052 -0.06609192 0.027 3 3 14
-0.015008519 -0.065662354 0.02 3 3 3
-0.0131324455 -0.065662354 0.02 4 4 4
-0.011224847 -0.06547825 0.017 6 4 0
-0.0093540335 -0.06547825 0.017 11 9 5
-0.0074551664 -0.06523279 0.013 20 7 18
-0.005591366 -0.06523279 0.013 18 5 16
-0.0037275653 -0.06523279 0.013 18 8 9
-0.0018638005 -0.06523279 0.013 17 7 8
0.0 -0.06523279 0.013 20 8 10
0.0018585759 -0.06504868 0.01 19 7 9
0.003717081 -0.06504868 0.01 13 10 11
0.0055755856 -0.06504868 0.01 14 11 12
0.007434162 -0.06504868 0.01 17 9 28
0.009318966 -0.06523279 0.013 13 5 24
0.011151242 -0.06504868 0.01 12 9 10
0.0130097475 -0.06504868 0.01 12 9 10
0.014910333 -0.06523279 0.013 7 6 20
0.016774168 -0.06523279 0.013 6 5 19
0.018637933 -0.06523279 0.013 9 6 7
0.02050177 -0.06523279 0.013 9 6 7
0.022302413 -0.06504868 0.01 10 4 13
0.02416092 -0.06504868 0.01 10 4 13
0.025945853 -0.06486458 0.007 10 4 13
0.027799102 -0.06486458 0.007 10 4 13
0.029652417 -0.06486458 0.007 8 5 6
0.03150566 -0.06486458 0.007 8 5 6
0.033264223 -0.06468048 0.004 6 6 6
0.03511228 -0.06468048 0.004 8 8 8
0.03706547 -0.06486458 0.007 8 12 0
0.038918782 -0.06486458 0.007 9 13 0
0.040772025 -0.06486458 0.007 16 13 5
0.04262527 -0.06486458 0.007 28 25 17
0.0018585759 -0.06690724 0.01 18 8 9
0.003717081 -0.06690724 0.01 13 11 5
0.0055755856 -0.06690724 0.01 12 10 4
0.007434162 -0.06690724 0.01 12 8 16
0.022302413 -0.06690724 0.01 10 4 13
0.02416092 -0.06690724 0.01 10 4 13
0.025945853 -0.06671788 0.007 9 6 7
0.027799102 -0.06671788 0.007 9 6 7
0.029652417 -0.06671788 0.007 7 7 7
0.03150566 -0.06671788 0.007 6 6 6
0.033264223 -0.06652852 0.004 6 6 6
0.03511228 -0.06652852 0.004 8 8 8
0.03706547 -0.06671788 0.007 9 10 3
0.038918782 -0.06671788 0.007 12 13 6
0.040772025 -0.06671788 0.007 15 18 8
0.04262527 -0.06671788 0.007 23 26 16
-0.0026035523 0.119665 -0.0026035523 102 83 62
-0.0013017885 0.119665 -0.0013017885 104 85 64
0.0021213202 0.11932309 -0.0021213202 106 92 57
0.005537015 0.11898119 -0.002948266 108 94 59
0.00683134 0.11898119 -0.0016539409 108 93 75
-0.0017728624 0.11748735 -0.006015503 105 88 64
-4.747932E-4 0.11748735 -0.004717434 102 85 51
0.002948291 0.11715071 -0.0055369902 105 88 54
0.0042426405 0.11715071 -0.0042426405 107 92 70
0.0076546157 0.11681407 -0.0050733057 106 91 69
0.008945221 0.11681407 -0.0037827 107 95 81
0.010235827 0.11681407 -0.0024920942 103 91 77
0.011526481 0.11681407 -0.0012014394 94 83 64
-9.347339E-4 0.115320235 -0.009420015 116 99 75
3.5961604E-4 0.115320235 -0.008125665 118 101 77
0.0016539657 0.115320235 -0.006831315 115 98 72
0.002948291 0.115320235 -0.0055369902 112 95 69
0.006363961 0.114988856 -0.006363961 96 83 76
0.0076546157 0.114988856 -0.0050733057 93 80 73
0.008945221 0.114988856 -0.0037827 92 81 62
0.010235827 0.114988856 -0.0024920942 93 82 63
0.011526481 0.114988856 -0.0012014394 95 80 62
0.012817088 0.114988856 8.916616E-5 91 76 58
0.014107742 0.114988856 0.0013798213 90 79 51
0.013303064 0.115320235 0.0048177824 92 81 53
0.018480463 0.115320235 0.009995182 110 102 80
0.019774787 0.115320235 0.011289507 107 91 78
0.021069115 0.115320235 0.012583833 109 93 80
0.024432736 0.114988856 0.011704815 118 103 71
0.025723342 0.114988856 0.01299542 123 108 76
0.027013997 0.114988856 0.014286076 125 110 83
0.028304601 0.114988856 0.015576681 132 117 90
0.027540836 0.115320235 0.019055557 119 102 76
-0.022130307 0.11414197 -0.022130307 101 83 55
-0.020828543 0.11414197 -0.020828543 104 85 60
-0.017349642 0.11381585 -0.021592284 99 80 55
-0.0138781825 0.11348973 -0.022363465 98 81 45
-0.012583833 0.11348973 -0.021069115 101 84 48
-0.015621387 0.11414197 -0.015621387 98 85 55
-0.014319624 0.11414197 -0.014319624 108 95 65
-0.008263184 0.11381585 -0.012505823 107 95 74
-0.0048177587 0.11348973 -0.01330304 110 98 77
-0.003523433 0.11348973 -0.0120087145 113 97 73
-0.0022290836 0.11348973 -0.010714365 113 97 73
0.0012014637 0.11316361 -0.011526458 119 100 84
0.0024920942 0.11316361 -0.010235827 122 103 87
0.003782725 0.11316361 -0.008945196 115 104 76
0.0050733304 0.11316361 -0.007654591 105 94 66
0.006363961 0.11316361 -0.006363961 88 79 57
0.0076546157 0.11316361 -0.0050733057 85 76 54
0.008945221 0.11316361 -0.0037827 86 70 36
0.010235827 0.11316361 -0.0024920942 100 84 50
0.013632925 0.11283749 -0.0033376375 101 86 66
0.014919811 0.11283749 -0.0020507507 95 80 60
0.014107742 0.11316361 0.0013798213 89 79 45
0.015398348 0.11316361 0.0026704269 93 83 49
0.014597389 0.11348973 0.006112108 93 85 54
0.015891764 0.11348973 0.0074064825 99 91 60
0.017186088 0.11348973 0.008700808 102 95 58
0.018480463 0.11348973 0.009995182 105 98 61
0.019774787 0.11348973 0.011289507 102 93 62
0.021069115 0.11348973 0.012583833 108 99 68
0.024432736 0.11316361 0.011704815 122 106 82
0.025723342 0.11316361 0.01299542 125 109 85
0.027013997 0.11316361 0.014286076 126 113 83
0.028304601 0.11316361 0.015576681 129 116 86
0.027540836 0.11348973 0.019055557 121 106 74
0.028835213 0.11348973 0.02034993 117 102 70
0.030129535 0.11348973 0.021644257 119 102 76
-0.026349785 0.11272878 -0.020692931 102 87 55
-0.022130307 0.11230097 -0.022130307 101 86 54
-0.018647712 0.11198011 -0.022890352 107 92 65
-0.017349642 0.11198011 -0.021592284 107 92 65
-0.0138781825 0.11165926 -0.022363465 103 90 60
-0.012583833 0.11165926 -0.021069115 107 94 64
-0.013455435 0.11198011 -0.017698074 106 92 65
-0.012157391 0.11198011 -0.016400032 113 99 72
-0.006542293 0.11133839 -0.019270213 109 95 70
-0.0052516637 0.11133839 -0.017979586 107 93 68
-0.008263184 0.11198011 -0.012505823 109 94 76
-0.0048177587 0.11165926 -0.01330304 123 108 90
-0.001379797 0.11133839 -0.014107718 120 104 72
-8.916616E-5 0.11133839 -0.012817088 118 102 70
0.0033376617 0.11101753 -0.0136329 115 101 88
0.0046245726 0.11101753 -0.012345989 114 100 87
0.003782725 0.11133839 -0.008945196 104 97 70
0.0050733304 0.11133839 -0.007654591 101 94 67
0.008485281 0.11101753 -0.008485281 92 81 80
0.009772217 0.11101753 -0.007198346 84 73 72
0.011059103 0.11101753 -0.0059114587 95 82 52
0.012345989 0.11101753 -0.0046245726 127 114 84
0.013632925 0.11101753 -0.0033376375 129 114 92
0.014919811 0.11101753 -0.0020507507 124 109 87
0.016206747 0.11101753 -7.638154E-4 121 107 82
0.017493634 0.11101753 5.2307127E-4 130 116 91
0.016688956 0.11133839 0.003961033 126 117 86
0.017979609 0.11133839 0.0052516875 123 114 83
0.019270213 0.11133839 0.006542293 122 113 77
0.02056087 0.11133839 0.007832948 124 115 79
0.021851476 0.11133839 0.009123554 123 114 83
0.02314208 0.11133839 0.01041416 132 123 92
0.024432736 0.11133839 0.011704815 131 122 98
0.025723342 0.11133839 0.01299542 130 121 97
0.027013997 0.11133839 0.014286076 130 120 82
0.028304601 0.11133839 0.015576681 124 114 76
0.027540836 0.11165926 0.019055557 126 118 79
0.028835213 0.11165926 0.02034993 131 123 84
0.030129535 0.11165926 0.021644257 128 120 91
0.031423908 0.11165926 0.02293863 116 108 79
0.030678743 0.11198011 0.026436102 106 92 90
0.03197679 0.11198011 0.027734146 103 89 87
-0.02896328 0.11088078 -0.02330643 99 85 58
-0.027656535 0.11088078 -0.021999681 105 91 64
-0.023432095 0.110459976 -0.023432095 106 92 65
-0.022130307 0.110459976 -0.022130307 109 95 68
-0.018647712 0.11014437 -0.022890352 109 94 74
-0.01517253 0.10982877 -0.02365781 108 93 73
-0.0138781825 0.10982877 -0.022363465 102 90 52
-0.012583833 0.10982877 -0.021069115 106 94 56
-0.011289482 0.10982877 -0.019774763 103 93 69
-0.009995157 0.10982877 -0.018480439 106 96 72
-0.006542293 0.10951318 -0.019270213 110 93 74
-0.0030968685 0.10919757 -0.020067431 111 94 75
-0.0018099576 0.10919757 -0.01878052 107 95 74
-0.002670402 0.10951318 -0.015398323 119 107 86
7.638397E-4 0.10919757 -0.016206723 119 105 78
0.0020507507 0.10919757 -0.014919811 122 108 81
0.006185926 0.10877677 -0.01644149 117 106 87
0.0074678776 0.10877677 -0.015159539 101 90 71
0.00874983 0.10877677 -0.013877587 94 91 67
0.010031756 0.10877677 -0.01259566 100 97 73
0.008485281 0.10919757 -0.008485281 104 92 78
0.009772217 0.10919757 -0.007198346 99 87 73
0.011059103 0.10919757 -0.0059114587 102 87 67
0.012345989 0.10919757 -0.0046245726 127 112 92
0.013632925 0.10919757 -0.0033376375 126 114 91
0.014919811 0.10919757 -0.0020507507 123 111 88
0.016206747 0.10919757 -7.638154E-4 121 106 79
0.017493634 0.10919757 5.2307127E-4 133 118 91
0.01878052 0.10919757 0.0018099576 129 119 83
0.020067455 0.10919757 0.0030968923 128 118 82
0.019270213 0.10951318 0.006542293 127 115 94
0.022641277 0.10919757 0.005670715 128 116 95
0.023928164 0.10919757 0.0069576018 125 115 91
0.02314208 0.10951318 0.01041416 125 115 91
0.024432736 0.10951318 0.011704815 121 114 98
0.025723342 0.10951318 0.01299542 126 119 103
0.027013997 0.10951318 0.014286076 131 125 100
0.028304601 0.10951318 0.015576681 123 117 92
0.02959521 0.10951318 0.01686729 122 117 87
0.030885862 0.10951318 0.018157942 127 122 92
0.03217647 0.10951318 0.019448547 127 126 104
0.033467125 0.10951318 0.020739203 120 119 97
0.032718234 0.10982877 0.024232956 115 111 94
0.034012564 0.10982877 0.02552728 100 96 79
0.035306934 0.10982877 0.026821656 102 87 67
0.03660126 0.10982877 0.028115978 108 93 73
0.0338464 0.110459976 0.0338464 111 93 74
0.035148166 0.110459976 0.035148166 113 95 76
0.036449928 0.110459976 0.036449928 114 98 74
0.035067134 0.11088078 0.040723987 110 94 70
0.036373857 0.11088078 0.042030707 106 95 76
0.03768063 0.11088078 0.043337483 115 104 85
-0.031576753 0.10903276 -0.0259199 101 89 51
-0.02733746 0.108618975 -0.02733746 99 87 49
-0.026035672 0.108618975 -0.026035672 101 84 65
-0.024733882 0.108618975 -0.024733882 107 90 71
-0.023432095 0.108618975 -0.023432095 112 98 63
-0.019945756 0.10830863 -0.024188396 124 110 75
-0.01646688 0.1079983 -0.024952164 116 104 79
-0.01517253 0.1079983 -0.02365781 110 98 73
-0.0138781825 0.1079983 -0.022363465 103 94 58
-0.012583833 0.1079983 -0.021069115 99 90 54
-0.0069575757 0.10737762 -0.02392814 104 89 71
-0.0056706904 0.10737762 -0.022641253 106 91 73
-0.006542293 0.10768796 -0.019270213 110 93 74
-0.0030968685 0.10737762 -0.020067431 118 101 82
-0.0018099576 0.10737762 -0.01878052 116 100 76
-5.230465E-4 0.10737762 -0.01749361 124 108 84
0.0057656593 0.10665349 -0.0211044 118 108 72
0.007043892 0.10665349 -0.019826166 115 105 69
0.008322124 0.10665349 -0.018547934 108 97 76
0.009600356 0.10665349 -0.0172697 95 84 63
0.010878589 0.10665349 -0.01599147 100 90 82
0.012156797 0.10665349 -0.014713261 113 103 95
0.0113137085 0.10696383 -0.0113137085 111 102 68
0.012595684 0.10696383 -0.010031733 100 91 57
0.013877613 0.10696383 -0.008749804 99 87 73
0.015159539 0.10696383 -0.0074678776 102 90 76
0.016441515 0.10696383 -0.0061859014 111 95 71
0.017723443 0.10696383 -0.004903974 113 97 73
0.021104423 0.10665349 -0.0057656346 116 101 74
0.022382632 0.10665349 -0.004487427 129 114 87
0.023660839 0.10665349 -0.003209219 125 115 77
0.024939094 0.10665349 -0.0019309625 127 117 79
0.026217304 0.10665349 -6.527548E-4 126 114 93
0.025415154 0.10696383 0.002787737 111 99 78
0.026697079 0.10696383 0.004069663 116 101 83
0.027979007 0.10696383 0.00535159 122 107 89
0.029260982 0.10696383 0.0066335667 111 97 93
0.030542912 0.10696383 0.007915496 108 94 90
0.031824887 0.10696383 0.009197471 113 100 93
0.030362694 0.10737762 0.013392132 123 110 103
0.03164958 0.10737762 0.014679018 121 112 86
0.032936517 0.10737762 0.015965953 123 114 88
0.034223404 0.10737762 0.01725284 127 121 96
0.03551034 0.10737762 0.018539773 129 123 98
0.03475773 0.10768796 0.022029808 133 124 109
0.036048338 0.10768796 0.023320414 136 127 112
0.037338994 0.10768796 0.02461107 132 122 88
0.04065793 0.10737762 0.023687368 120 110 76
0.04194487 0.10737762 0.024974305 122 106 91
0.041210853 0.10768796 0.028482933 118 102 87
0.042501464 0.10768796 0.029773545 109 94 76
0.0397652 0.10830863 0.035522565 106 91 73
0.039053503 0.108618975 0.039053503 104 94 86
0.03768063 0.10903276 0.043337483 112 102 94
0.03898735 0.10903276 0.044644203 114 104 76
0.04029407 0.10903276 0.045950923 114 104 76
0.041600846 0.10903276 0.0472577 120 104 80
-0.0312428 0.10677797 -0.0312428 96 87 65
-0.029941013 0.10677797 -0.029941013 98 89 67
-0.028639225 0.10677797 -0.028639225 101 88 55
-0.025138034 0.1064729 -0.029380674 103 90 57
-0.023839964 0.1064729 -0.028082605 103 89 64
-0.020349907 0.106167816 -0.028835187 106 92 67
-0.019055557 0.106167816 -0.027540836 114 97 73
-0.017761208 0.106167816 -0.026246486 120 103 79
-0.014286051 0.10586274 -0.02701397 116 103 85
-0.01081831 0.10555766 -0.027788872 109 96 78
-0.009531399 0.10555766 -0.026501961 107 100 56
-0.008244487 0.10555766 -0.02521505 102 95 51
-0.0040696394 0.105150886 -0.026697056 102 87 67
-0.002787712 0.105150886 -0.025415128 106 91 71
-0.0043837796 0.10555766 -0.021354342 109 91 70
0.0019309873 0.1048458 -0.024939071 117 99 78
0.003209219 0.1048458 -0.023660839 115 98 79
0.0044874516 0.1048458 -0.022382606 120 103 84
0.0057656593 0.1048458 -0.0211044 111 109 80
0.007043892 0.1048458 -0.019826166 105 103 74
0.008322124 0.1048458 -0.018547934 105 95 76
0.009600356 0.1048458 -0.0172697 102 92 73
0.010878589 0.1048458 -0.01599147 104 89 83
0.012156797 0.1048458 -0.014713261 116 101 95
0.0113137085 0.105150886 -0.0113137085 115 103 78
0.0147132855 0.1048458 -0.012156772 104 92 67
0.015991494 0.1048458 -0.010878565 93 83 64
0.0172697 0.1048458 -0.009600356 90 80 61
0.018547958 0.1048458 -0.008322099 90 81 55
0.019826166 0.1048458 -0.007043892 99 90 64
0.023203427 0.10454073 -0.007909271 106 95 74
0.024477916 0.10454073 -0.006634782 111 100 79
0.025752403 0.10454073 -0.005360294 111 100 79
0.02702694 0.10454073 -0.0040857573 120 109 88
0.028301429 0.10454073 -0.0028112677 119 109 94
0.029575966 0.10454073 -0.0015367308 101 91 76
0.030850457 0.10454073 -2.622423E-4 106 87 71
0.032124948 0.10454073 0.001012247 111 92 76
0.031330235 0.1048458 0.0044601755 111 94 77
0.032608442 0.1048458 0.005738383 112 95 78
0.0338867 0.1048458 0.0070166406 111 93 81
0.033106815 0.105150886 0.010479398 113 95 83
0.03438874 0.105150886 0.0117613245 109 95 70
0.032936517 0.10555766 0.015965953 126 112 87
0.034223404 0.10555766 0.01725284 120 112 90
0.03551034 0.10555766 0.018539773 121 113 91
0.036797225 0.10555766 0.019826662 136 123 105
0.038084112 0.10555766 0.021113548 144 131 113
0.039371047 0.10555766 0.022400483 142 129 99
0.04065793 0.10555766 0.023687368 134 121 91
0.04194487 0.10555766 0.024974305 129 117 96
0.041210853 0.10586274 0.028482933 120 108 87
0.042501464 0.10586274 0.029773545 110 97 67
0.04177866 0.106167816 0.033293378 110 97 67
0.041063245 0.1064729 0.036820605 106 98 78
0.04035532 0.10677797 0.04035532 104 96 76
0.041657086 0.10677797 0.041657086 101 88 55
0.04295885 0.10677797 0.04295885 116 103 70
0.044260662 0.10677797 0.044260662 121 102 81
0.045562424 0.10677797 0.045562424 129 110 89
0.046864234 0.10677797 0.046864234 129 113 98
0.048166 0.10677797 0.048166 121 105 90
0.049467765 0.10677797 0.049467765 104 91 84
-0.03254459 0.10493698 -0.03254459 91 84 75
-0.0312428 0.10493698 -0.0312428 95 85 68
-0.027734146 0.10463716 -0.03197679 98 88 71
-0.026436076 0.10463716 -0.030678717 107 94 61
-0.022938605 0.10433734 -0.031423885 108 95 62
-0.021644257 0.10433734 -0.030129535 105 93 70
-0.018157916 0.10403752 -0.030885838 105 93 70
-0.01686729 0.10403752 -0.02959521 97 83 79
-0.015576656 0.10403752 -0.028304577 96 82 78
-0.012105221 0.103737704 -0.029075783 98 87 66
-0.007915496 0.103337936 -0.030542912 92 81 60
-0.006633542 0.103337936 -0.02926096 95 84 41
-0.00535159 0.103337936 -0.027979007 115 104 61
-0.0040696394 0.103337936 -0.026697056 114 102 81
-0.002787712 0.103337936 -0.025415128 112 100 79
-0.0043837796 0.103737704 -0.021354342 113 96 77
0.0019309873 0.10303812 -0.024939071 114 97 78
0.003209219 0.10303812 -0.023660839 112 96 83
0.0044874516 0.10303812 -0.022382606 110 94 81
0.007909295 0.1027383 -0.0232034 106 95 76
0.009183808 0.1027383 -0.02192889 104 93 74
0.008322124 0.10303812 -0.018547934 106 95 76
0.011732833 0.1027383 -0.019379864 117 106 87
0.0130073475 0.1027383 -0.01810535 115 102 84
0.012156797 0.10303812 -0.014713261 115 102 84
0.0155563485 0.1027383 -0.0155563485 115 102 69
0.016830888 0.1027383 -0.014281812 106 93 60
0.018105375 0.1027383 -0.013007323 104 89 71
0.019379864 0.1027383 -0.011732833 87 72 54
0.020654399 0.1027383 -0.010458298 96 81 63
0.02192889 0.1027383 -0.009183808 101 86 68
0.023203427 0.1027383 -0.007909271 95 83 67
0.024477916 0.1027383 -0.006634782 94 82 66
0.025752403 0.1027383 -0.005360294 95 83 87
0.02702694 0.1027383 -0.0040857573 101 89 93
0.028301429 0.1027383 -0.0028112677 100 88 74
0.029575966 0.1027383 -0.0015367308 97 85 71
0.030850457 0.1027383 -2.622423E-4 102 88 75
0.032124948 0.1027383 0.001012247 107 93 80
0.03339948 0.1027383 0.002286785 115 96 80
0.03467397 0.1027383 0.0035612716 122 103 87
0.035948507 0.1027383 0.0048358096 124 111 95
0.037222996 0.1027383 0.006110298 121 108 92
0.03644311 0.10303812 0.0095730545 115 105 97
0.03772137 0.10303812 0.0108513115 121 111 103
0.038999576 0.10303812 0.012129519 122 112 95
0.03823462 0.103337936 0.015607205 120 110 93
0.03951655 0.103337936 0.016889133 129 119 95
0.040798474 0.103337936 0.018171059 142 132 108
0.039371047 0.103737704 0.022400483 137 128 85
0.04065793 0.103737704 0.023687368 128 119 76
0.04194487 0.103737704 0.024974305 133 126 91
0.04323176 0.103737704 0.026261194 133 126 91
0.04451864 0.103737704 0.027548078 133 127 83
0.043792117 0.10403752 0.031064197 127 121 77
0.04508272 0.10403752 0.032354802 118 106 81
0.04035532 0.10493698 0.04035532 106 94 69
0.041657086 0.10493698 0.041657086 110 94 70
0.04495743 0.10463716 0.04071479 115 99 75
0.04625552 0.10463716 0.04201288 118 101 77
0.047553565 0.10463716 0.04331093 123 106 82
0.046864234 0.10493698 0.046864234 118 99 83
0.048166 0.10493698 0.048166 114 95 79
0.049467765 0.10493698 0.049467765 113 98 78
0.05076958 0.10493698 0.05076958 118 103 83
0.049441285 0.10533674 0.05509814 111 99 74
-0.03384638 0.10309598 -0.03384638 75 69 34
-0.03254459 0.10309598 -0.03254459 92 86 51
-0.029032215 0.10280142 -0.033274855 95 83 67
-0.02552728 0.10250686 -0.034012564 100 88 72
-0.02423293 0.10250686 -0.03271821 107 95 74
-0.02073918 0.1022123 -0.033467103 106 94 73
-0.019448547 0.1022123 -0.03217647 103 93 69
-0.015965927 0.101917736 -0.032936487 102 92 68
-0.014679018 0.101917736 -0.03164958 88 79 57
-0.013392107 0.101917736 -0.03036267 92 83 61
-0.009197447 0.101524994 -0.031824864 97 85 69
-0.007915496 0.101524994 -0.030542912 93 81 65
-0.006633542 0.101524994 -0.02926096 89 72 25
-0.00535159 0.101524994 -0.027979007 121 104 57
-0.0040696394 0.101524994 -0.026697056 119 104 84
-0.002787712 0.101524994 -0.025415128 115 100 80
-0.0043837796 0.101917736 -0.021354342 113 98 78
0.004085781 0.10093588 -0.027026916 114 99 79
0.005360294 0.10093588 -0.025752403 112 97 79
0.0066348067 0.10093588 -0.02447789 107 92 74
0.007909295 0.10093588 -0.0232034 107 91 78
0.009183808 0.10093588 -0.02192889 104 88 75
0.010458321 0.10093588 -0.020654377 105 90 72
0.011732833 0.10093588 -0.019379864 110 95 77
0.0130073475 0.10093588 -0.01810535 108 94 92
0.014281835 0.10093588 -0.016830862 106 92 90
0.0155563485 0.10093588 -0.0155563485 103 92 73
0.016830888 0.10093588 -0.014281812 104 93 74
0.018105375 0.10093588 -0.013007323 108 92 79
0.019379864 0.10093588 -0.011732833 93 77 64
0.020654399 0.10093588 -0.010458298 95 78 61
0.02192889 0.10093588 -0.009183808 96 79 62
0.02530243 0.10064131 -0.010052908 90 71 64
0.0265732 0.10064131 -0.008782139 91 72 65
0.025752403 0.10093588 -0.005360294 92 82 76
0.02702694 0.10093588 -0.0040857573 90 80 74
0.028301429 0.10093588 -0.0028112677 92 82 74
0.031656377 0.10064131 -0.0036989641 96 86 78
0.032927144 0.10064131 -0.002428196 102 87 81
0.034197915 0.10064131 -0.0011574249 104 89 83
0.03546873 0.10064131 1.1339188E-4 115 98 81
0.03467397 0.10093588 0.0035612716 126 109 92
0.035948507 0.10093588 0.0048358096 127 118 103
0.037222996 0.10093588 0.006110298 119 110 95
0.03849748 0.10093588 0.0073847864 112 108 91
0.039772023 0.10093588 0.008659325 117 113 96
0.038999576 0.101230435 0.012129519 122 112 95
0.040277835 0.101230435 0.013407777 123 113 96
0.04155604 0.101230435 0.014685985 127 113 100
0.042834252 0.101230435 0.015964193 136 122 109
0.044112507 0.101230435 0.01724245 133 126 97
0.043362383 0.101524994 0.020734962 131 124 95
0.044644356 0.101524994 0.022016937 132 125 105
0.045926284 0.101524994 0.023298867 133 126 106
0.04720821 0.101524994 0.024580792 136 129 104
0.04580558 0.101917736 0.028835015 135 128 103
0.04709246 0.101917736 0.0301219 123 111 95
0.04637338 0.1022123 0.03364546 111 99 83
0.045661684 0.10250686 0.037176404 117 95 71
0.04695601 0.10250686 0.038470726 120 98 74
0.04625552 0.10280142 0.04201288 119 102 78
0.047553565 0.10280142 0.04331093 120 103 79
0.046864234 0.10309598 0.046864234 108 92 79
0.048166 0.10309598 0.048166 108 92 79
0.049467765 0.10309598 0.049467765 107 95 81
0.05076958 0.10309598 0.05076958 106 94 80
0.052071344 0.10309598 0.052071344 107 96 75
0.053373154 0.10309598 0.053373154 106 95 74
0.05467492 0.10309598 0.05467492 107 92 74
-0.03384638 0.101254985 -0.03384638 93 88 39
-0.03254459 0.101254985 -0.03254459 106 101 52
-0.029032215 0.100965686 -0.033274855 107 98 83
-0.02552728 0.10067639 -0.034012564 105 96 81
-0.022029785 0.10038708 -0.034757707 115 105 77
-0.01853975 0.10009778 -0.035510313 117 107 79
-0.01725284 0.10009778 -0.034223404 110 99 80
